854.00	822.00	797.00	770.00	791.00	767.00	835.00	870.00	902.00	924.00	871.00	819.00	779.00	811.00	836.00	852.00	809.00	777.00	740.00	707.00	688.00	690.00	710.00	708.00	751.00	738.00	797.00	792.00	764.00	736.00	716.00	698.00	680.00	649.00	627.00	623.00	643.00	687.00	719.00	757.00	786.00	799.00	775.00	759.00	740.00	719.00	656.00	651.00	648.00	633.00	616.00	609.00	601.00	590.00	585.00	583.00	584.00	581.00	580.00	574.00	560.00	560.00	559.00	569.00	628.00	631.00	608.00	638.00	694.00	680.00	749.00	702.00	670.00	621.00	603.00	596.00	567.00	559.00	538.00	537.00	538.00	538.00	561.00	581.00	609.00	653.00	692.00	744.00	730.00	793.00	841.00	884.00	890.00	888.00	870.00	850.00	852.00	859.00	883.00	879.00	780.00	747.00	738.00	723.00	705.00	789.00	739.00	717.00	710.00	726.00	745.00	769.00	801.00	795.00	825.00	820.00	810.00	857.00	858.00	921.00	833.00	775.00	797.00	919.00	907.00	876.00	819.00	783.00	766.00	823.00	783.00	785.00	784.00	867.00	865.00	799.00	699.00	686.00	675.00	680.00	634.00	653.00	702.00	707.00	684.00	621.00	606.00	672.00	659.00	633.00	588.00	564.00	587.00	567.00	629.00	576.00	593.00	680.00	739.00	737.00	647.00	647.00	598.00	585.00	553.00	613.00	644.00	585.00	565.00	554.00	535.00	507.00	519.00	524.00	481.00	490.00	483.00	463.00	433.00	421.00	415.00	411.00	410.00	414.00	440.00	451.00	462.00	496.00	495.00	475.00	452.00	424.00	405.00	410.00	487.00	501.00	498.00	467.00	455.00	439.00	427.00	421.00	418.00	417.00	419.00	418.00	417.00	404.00	427.00	444.00	461.00	424.00	511.00	502.00	463.00	455.00	481.00	497.00	454.00	419.00	417.00	403.00	402.00	403.00	401.00	401.00	405.00	399.00	398.00	399.00	407.00	403.00	402.00	399.00	395.00	371.00	372.00	379.00	391.00	394.00	382.00	355.00	348.00	373.00	356.00	324.00	320.00	324.00	331.00	328.00	330.00	334.00	335.00	328.00	327.00	326.00
840.00	813.00	798.00	772.00	753.00	748.00	832.00	883.00	870.00	878.00	873.00	824.00	784.00	757.00	779.00	845.00	817.00	772.00	767.00	751.00	719.00	697.00	677.00	674.00	703.00	692.00	782.00	771.00	734.00	712.00	711.00	729.00	717.00	700.00	631.00	620.00	660.00	717.00	755.00	783.00	788.00	761.00	706.00	707.00	749.00	750.00	686.00	687.00	682.00	664.00	648.00	600.00	600.00	600.00	592.00	596.00	585.00	571.00	567.00	563.00	559.00	557.00	556.00	555.00	578.00	603.00	596.00	595.00	659.00	629.00	661.00	625.00	597.00	566.00	561.00	587.00	575.00	554.00	540.00	537.00	537.00	539.00	545.00	554.00	584.00	611.00	618.00	744.00	756.00	740.00	764.00	787.00	769.00	771.00	777.00	808.00	890.00	867.00	865.00	871.00	836.00	812.00	817.00	805.00	726.00	732.00	740.00	747.00	731.00	747.00	752.00	811.00	853.00	834.00	818.00	873.00	863.00	846.00	912.00	951.00	913.00	897.00	900.00	945.00	875.00	839.00	854.00	860.00	878.00	883.00	787.00	885.00	866.00	878.00	831.00	758.00	839.00	794.00	734.00	674.00	695.00	715.00	797.00	790.00	706.00	694.00	662.00	697.00	741.00	636.00	593.00	571.00	634.00	591.00	684.00	634.00	589.00	636.00	766.00	766.00	722.00	738.00	619.00	613.00	605.00	670.00	688.00	643.00	652.00	628.00	565.00	528.00	578.00	533.00	507.00	499.00	470.00	456.00	445.00	427.00	423.00	410.00	408.00	406.00	405.00	427.00	468.00	460.00	446.00	462.00	479.00	446.00	413.00	400.00	454.00	475.00	503.00	478.00	457.00	461.00	447.00	438.00	428.00	414.00	411.00	417.00	418.00	398.00	412.00	435.00	437.00	411.00	452.00	460.00	505.00	477.00	468.00	490.00	463.00	444.00	449.00	420.00	403.00	402.00	402.00	400.00	399.00	398.00	397.00	398.00	397.00	397.00	395.00	394.00	393.00	378.00	376.00	376.00	376.00	370.00	370.00	370.00	355.00	368.00	359.00	369.00	336.00	317.00	314.00	325.00	324.00	327.00	319.00	319.00	318.00	317.00
830.00	846.00	820.00	791.00	769.00	739.00	818.00	855.00	842.00	823.00	910.00	844.00	790.00	756.00	745.00	877.00	867.00	849.00	856.00	805.00	797.00	763.00	727.00	689.00	658.00	668.00	713.00	738.00	783.00	744.00	692.00	669.00	677.00	698.00	633.00	616.00	643.00	712.00	718.00	734.00	754.00	762.00	687.00	663.00	686.00	730.00	703.00	673.00	656.00	640.00	623.00	643.00	665.00	656.00	631.00	651.00	630.00	601.00	581.00	575.00	563.00	556.00	553.00	552.00	558.00	599.00	598.00	573.00	641.00	582.00	584.00	597.00	571.00	542.00	539.00	539.00	539.00	538.00	536.00	537.00	538.00	542.00	581.00	566.00	554.00	555.00	561.00	625.00	651.00	673.00	689.00	673.00	694.00	741.00	800.00	860.00	847.00	783.00	778.00	800.00	840.00	863.00	879.00	819.00	747.00	723.00	759.00	775.00	778.00	792.00	790.00	786.00	851.00	875.00	816.00	834.00	910.00	936.00	928.00	975.00	931.00	898.00	935.00	947.00	914.00	831.00	762.00	826.00	902.00	913.00	878.00	999.00	938.00	871.00	816.00	860.00	871.00	800.00	729.00	667.00	807.00	795.00	856.00	798.00	712.00	780.00	752.00	733.00	708.00	611.00	589.00	609.00	666.00	619.00	757.00	695.00	669.00	634.00	733.00	721.00	702.00	742.00	674.00	704.00	722.00	729.00	751.00	726.00	690.00	671.00	626.00	597.00	602.00	570.00	562.00	528.00	508.00	476.00	470.00	449.00	466.00	448.00	420.00	403.00	402.00	401.00	408.00	415.00	439.00	460.00	475.00	465.00	428.00	399.00	444.00	469.00	467.00	445.00	436.00	425.00	445.00	447.00	452.00	412.00	407.00	405.00	407.00	396.00	396.00	399.00	400.00	410.00	455.00	472.00	512.00	493.00	464.00	471.00	490.00	451.00	442.00	430.00	426.00	416.00	409.00	413.00	407.00	399.00	399.00	403.00	416.00	399.00	396.00	396.00	396.00	384.00	382.00	382.00	377.00	366.00	363.00	361.00	360.00	359.00	364.00	385.00	405.00	390.00	325.00	309.00	313.00	337.00	368.00	342.00	343.00	401.00
818.00	831.00	821.00	800.00	797.00	729.00	805.00	852.00	829.00	801.00	912.00	844.00	791.00	754.00	734.00	847.00	869.00	860.00	864.00	818.00	773.00	738.00	715.00	692.00	674.00	651.00	660.00	698.00	723.00	732.00	728.00	701.00	666.00	629.00	616.00	612.00	625.00	669.00	701.00	702.00	705.00	753.00	701.00	671.00	647.00	649.00	686.00	675.00	651.00	631.00	621.00	681.00	711.00	700.00	690.00	695.00	687.00	631.00	618.00	624.00	605.00	594.00	581.00	551.00	548.00	549.00	562.00	560.00	585.00	599.00	557.00	553.00	556.00	540.00	539.00	540.00	539.00	539.00	537.00	539.00	543.00	563.00	644.00	666.00	629.00	592.00	571.00	569.00	575.00	641.00	640.00	714.00	801.00	859.00	863.00	843.00	800.00	743.00	730.00	763.00	783.00	827.00	815.00	792.00	746.00	727.00	749.00	776.00	802.00	794.00	843.00	814.00	885.00	914.00	847.00	832.00	861.00	916.00	988.00	989.00	932.00	882.00	830.00	835.00	854.00	810.00	739.00	806.00	819.00	825.00	869.00	1027.00	997.00	950.00	962.00	977.00	863.00	788.00	718.00	665.00	763.00	851.00	838.00	787.00	831.00	852.00	812.00	757.00	704.00	624.00	674.00	704.00	740.00	729.00	816.00	825.00	826.00	771.00	705.00	674.00	635.00	692.00	750.00	715.00	743.00	746.00	699.00	711.00	697.00	626.00	590.00	588.00	556.00	588.00	561.00	520.00	517.00	521.00	489.00	503.00	510.00	493.00	505.00	409.00	400.00	397.00	396.00	397.00	408.00	434.00	482.00	473.00	430.00	406.00	427.00	430.00	466.00	444.00	420.00	407.00	409.00	413.00	432.00	412.00	402.00	402.00	398.00	393.00	391.00	394.00	409.00	426.00	481.00	507.00	486.00	479.00	450.00	429.00	439.00	426.00	422.00	467.00	467.00	454.00	456.00	480.00	433.00	425.00	423.00	448.00	433.00	417.00	411.00	417.00	418.00	394.00	393.00	393.00	392.00	373.00	384.00	391.00	372.00	356.00	357.00	362.00	394.00	382.00	333.00	315.00	318.00	422.00	431.00	364.00	354.00	398.00
838.00	758.00	795.00	786.00	767.00	723.00	816.00	865.00	838.00	797.00	833.00	832.00	795.00	752.00	726.00	863.00	863.00	803.00	790.00	779.00	751.00	731.00	752.00	748.00	737.00	684.00	637.00	638.00	660.00	679.00	703.00	704.00	696.00	664.00	626.00	609.00	613.00	638.00	651.00	677.00	720.00	758.00	713.00	681.00	650.00	630.00	639.00	663.00	650.00	639.00	637.00	688.00	695.00	675.00	660.00	650.00	653.00	616.00	605.00	603.00	635.00	644.00	629.00	593.00	546.00	546.00	546.00	547.00	551.00	544.00	540.00	541.00	540.00	539.00	539.00	539.00	539.00	539.00	539.00	540.00	542.00	568.00	637.00	681.00	706.00	657.00	610.00	634.00	609.00	592.00	600.00	716.00	751.00	759.00	798.00	756.00	763.00	706.00	701.00	707.00	759.00	813.00	802.00	765.00	745.00	736.00	765.00	811.00	840.00	887.00	925.00	927.00	914.00	965.00	895.00	912.00	930.00	957.00	994.00	984.00	958.00	937.00	872.00	743.00	758.00	763.00	717.00	733.00	768.00	831.00	884.00	1009.00	1018.00	991.00	990.00	939.00	811.00	750.00	706.00	668.00	789.00	839.00	830.00	869.00	936.00	868.00	799.00	751.00	731.00	742.00	773.00	782.00	841.00	855.00	815.00	803.00	842.00	823.00	712.00	657.00	609.00	629.00	750.00	674.00	661.00	702.00	681.00	643.00	673.00	679.00	617.00	571.00	513.00	535.00	546.00	525.00	476.00	514.00	527.00	520.00	480.00	504.00	499.00	460.00	424.00	396.00	394.00	393.00	392.00	396.00	436.00	455.00	456.00	449.00	399.00	426.00	452.00	460.00	451.00	417.00	403.00	401.00	401.00	403.00	398.00	397.00	395.00	391.00	389.00	391.00	417.00	451.00	447.00	438.00	463.00	475.00	455.00	435.00	426.00	411.00	405.00	397.00	398.00	410.00	422.00	453.00	484.00	462.00	458.00	454.00	461.00	443.00	451.00	479.00	463.00	439.00	428.00	425.00	429.00	400.00	424.00	443.00	397.00	355.00	352.00	355.00	360.00	359.00	340.00	333.00	314.00	343.00	416.00	414.00	370.00	397.00
838.00	758.00	795.00	786.00	767.00	723.00	816.00	865.00	838.00	797.00	833.00	832.00	795.00	752.00	726.00	863.00	863.00	803.00	790.00	779.00	751.00	731.00	752.00	748.00	737.00	684.00	637.00	638.00	660.00	679.00	703.00	704.00	696.00	664.00	626.00	609.00	613.00	638.00	651.00	677.00	720.00	758.00	713.00	681.00	650.00	630.00	639.00	663.00	650.00	639.00	637.00	688.00	695.00	675.00	660.00	650.00	653.00	616.00	605.00	603.00	635.00	644.00	629.00	593.00	546.00	546.00	546.00	547.00	551.00	544.00	540.00	541.00	540.00	539.00	539.00	539.00	539.00	539.00	539.00	540.00	542.00	568.00	637.00	681.00	706.00	657.00	610.00	634.00	609.00	592.00	600.00	716.00	751.00	759.00	798.00	756.00	763.00	706.00	701.00	707.00	759.00	813.00	802.00	765.00	745.00	736.00	765.00	811.00	840.00	887.00	925.00	927.00	914.00	965.00	895.00	912.00	930.00	957.00	994.00	984.00	958.00	937.00	872.00	743.00	758.00	763.00	717.00	733.00	768.00	831.00	884.00	1009.00	1018.00	991.00	990.00	939.00	811.00	750.00	706.00	668.00	789.00	839.00	830.00	869.00	936.00	868.00	799.00	751.00	731.00	742.00	773.00	782.00	841.00	855.00	815.00	803.00	842.00	823.00	712.00	657.00	609.00	629.00	750.00	674.00	661.00	702.00	681.00	643.00	673.00	679.00	617.00	571.00	513.00	535.00	546.00	525.00	476.00	514.00	527.00	520.00	480.00	504.00	499.00	460.00	424.00	396.00	394.00	393.00	392.00	396.00	436.00	455.00	456.00	449.00	399.00	426.00	452.00	460.00	451.00	417.00	403.00	401.00	401.00	403.00	398.00	397.00	395.00	391.00	389.00	391.00	417.00	451.00	447.00	438.00	463.00	475.00	455.00	435.00	426.00	411.00	405.00	397.00	398.00	410.00	422.00	453.00	484.00	462.00	458.00	454.00	461.00	443.00	451.00	479.00	463.00	439.00	428.00	425.00	429.00	400.00	424.00	443.00	397.00	355.00	352.00	355.00	360.00	359.00	340.00	333.00	314.00	343.00	416.00	414.00	370.00	397.00
835.00	745.00	744.00	781.00	755.00	721.00	814.00	850.00	855.00	820.00	768.00	752.00	744.00	731.00	717.00	852.00	832.00	787.00	750.00	836.00	814.00	795.00	817.00	784.00	782.00	731.00	653.00	638.00	625.00	631.00	636.00	661.00	679.00	675.00	623.00	605.00	609.00	668.00	679.00	698.00	711.00	738.00	700.00	677.00	659.00	640.00	602.00	608.00	622.00	650.00	665.00	681.00	664.00	644.00	630.00	616.00	612.00	603.00	597.00	587.00	564.00	572.00	606.00	612.00	553.00	544.00	542.00	541.00	541.00	541.00	540.00	541.00	540.00	539.00	540.00	539.00	539.00	541.00	574.00	553.00	546.00	548.00	656.00	676.00	683.00	685.00	671.00	755.00	711.00	618.00	610.00	608.00	643.00	693.00	736.00	691.00	695.00	666.00	660.00	716.00	794.00	832.00	847.00	816.00	797.00	749.00	756.00	786.00	819.00	863.00	900.00	972.00	1030.00	1043.00	1019.00	1005.00	948.00	879.00	838.00	852.00	845.00	865.00	861.00	743.00	709.00	694.00	681.00	770.00	802.00	809.00	797.00	896.00	887.00	856.00	878.00	816.00	770.00	720.00	688.00	710.00	828.00	799.00	741.00	792.00	889.00	797.00	748.00	705.00	701.00	739.00	727.00	708.00	776.00	771.00	740.00	718.00	751.00	731.00	698.00	692.00	628.00	583.00	708.00	619.00	597.00	650.00	689.00	657.00	603.00	635.00	655.00	617.00	516.00	493.00	482.00	473.00	454.00	453.00	472.00	505.00	471.00	492.00	467.00	440.00	432.00	396.00	393.00	392.00	390.00	388.00	388.00	395.00	415.00	428.00	387.00	422.00	436.00	431.00	458.00	428.00	432.00	436.00	402.00	401.00	395.00	394.00	393.00	391.00	386.00	386.00	391.00	415.00	421.00	456.00	485.00	489.00	488.00	485.00	454.00	447.00	461.00	424.00	399.00	388.00	372.00	417.00	452.00	435.00	458.00	438.00	389.00	392.00	404.00	422.00	426.00	427.00	426.00	429.00	417.00	427.00	421.00	388.00	365.00	351.00	350.00	350.00	352.00	351.00	339.00	334.00	316.00	336.00	450.00	462.00	401.00	396.00
865.00	813.00	760.00	721.00	702.00	743.00	821.00	816.00	797.00	791.00	802.00	806.00	762.00	714.00	714.00	841.00	798.00	758.00	721.00	791.00	821.00	773.00	823.00	850.00	786.00	760.00	710.00	694.00	651.00	648.00	642.00	622.00	612.00	602.00	600.00	599.00	600.00	639.00	644.00	643.00	654.00	705.00	692.00	671.00	659.00	633.00	590.00	584.00	588.00	610.00	628.00	681.00	705.00	660.00	632.00	652.00	670.00	640.00	627.00	629.00	572.00	554.00	544.00	544.00	542.00	542.00	541.00	541.00	541.00	541.00	540.00	541.00	542.00	585.00	617.00	600.00	645.00	626.00	681.00	625.00	612.00	575.00	558.00	599.00	664.00	722.00	751.00	785.00	833.00	834.00	802.00	706.00	648.00	614.00	612.00	616.00	645.00	683.00	732.00	705.00	795.00	830.00	838.00	857.00	871.00	805.00	828.00	810.00	839.00	921.00	932.00	933.00	928.00	963.00	1101.00	1087.00	1020.00	932.00	772.00	753.00	708.00	692.00	700.00	738.00	715.00	685.00	654.00	732.00	744.00	711.00	679.00	715.00	758.00	791.00	822.00	825.00	757.00	771.00	782.00	757.00	694.00	666.00	664.00	664.00	723.00	703.00	676.00	644.00	690.00	707.00	661.00	633.00	644.00	648.00	732.00	780.00	769.00	744.00	668.00	635.00	616.00	583.00	552.00	584.00	544.00	568.00	618.00	666.00	619.00	581.00	551.00	534.00	570.00	585.00	570.00	555.00	509.00	496.00	474.00	463.00	456.00	422.00	427.00	428.00	438.00	421.00	442.00	465.00	425.00	402.00	387.00	383.00	381.00	380.00	377.00	378.00	401.00	436.00	433.00	436.00	425.00	419.00	421.00	427.00	394.00	386.00	383.00	381.00	376.00	377.00	377.00	389.00	432.00	411.00	409.00	448.00	455.00	504.00	490.00	496.00	513.00	469.00	474.00	487.00	489.00	391.00	352.00	372.00	387.00	415.00	355.00	339.00	330.00	328.00	325.00	324.00	324.00	335.00	339.00	352.00	351.00	353.00	347.00	346.00	340.00	341.00	342.00	341.00	336.00	334.00	307.00	403.00	442.00	473.00	450.00	458.00
865.00	813.00	760.00	721.00	702.00	743.00	821.00	816.00	797.00	791.00	802.00	806.00	762.00	714.00	714.00	841.00	798.00	758.00	721.00	791.00	821.00	773.00	823.00	850.00	786.00	760.00	710.00	694.00	651.00	648.00	642.00	622.00	612.00	602.00	600.00	599.00	600.00	639.00	644.00	643.00	654.00	705.00	692.00	671.00	659.00	633.00	590.00	584.00	588.00	610.00	628.00	681.00	705.00	660.00	632.00	652.00	670.00	640.00	627.00	629.00	572.00	554.00	544.00	544.00	542.00	542.00	541.00	541.00	541.00	541.00	540.00	541.00	542.00	585.00	617.00	600.00	645.00	626.00	681.00	625.00	612.00	575.00	558.00	599.00	664.00	722.00	751.00	785.00	833.00	834.00	802.00	706.00	648.00	614.00	612.00	616.00	645.00	683.00	732.00	705.00	795.00	830.00	838.00	857.00	871.00	805.00	828.00	810.00	839.00	921.00	932.00	933.00	928.00	963.00	1101.00	1087.00	1020.00	932.00	772.00	753.00	708.00	692.00	700.00	738.00	715.00	685.00	654.00	732.00	744.00	711.00	679.00	715.00	758.00	791.00	822.00	825.00	757.00	771.00	782.00	757.00	694.00	666.00	664.00	664.00	723.00	703.00	676.00	644.00	690.00	707.00	661.00	633.00	644.00	648.00	732.00	780.00	769.00	744.00	668.00	635.00	616.00	583.00	552.00	584.00	544.00	568.00	618.00	666.00	619.00	581.00	551.00	534.00	570.00	585.00	570.00	555.00	509.00	496.00	474.00	463.00	456.00	422.00	427.00	428.00	438.00	421.00	442.00	465.00	425.00	402.00	387.00	383.00	381.00	380.00	377.00	378.00	401.00	436.00	433.00	436.00	425.00	419.00	421.00	427.00	394.00	386.00	383.00	381.00	376.00	377.00	377.00	389.00	432.00	411.00	409.00	448.00	455.00	504.00	490.00	496.00	513.00	469.00	474.00	487.00	489.00	391.00	352.00	372.00	387.00	415.00	355.00	339.00	330.00	328.00	325.00	324.00	324.00	335.00	339.00	352.00	351.00	353.00	347.00	346.00	340.00	341.00	342.00	341.00	336.00	334.00	307.00	403.00	442.00	473.00	450.00	458.00
865.00	813.00	760.00	721.00	702.00	743.00	821.00	816.00	797.00	791.00	802.00	806.00	762.00	714.00	714.00	841.00	798.00	758.00	721.00	791.00	821.00	773.00	823.00	850.00	786.00	760.00	710.00	694.00	651.00	648.00	642.00	622.00	612.00	602.00	600.00	599.00	600.00	639.00	644.00	643.00	654.00	705.00	692.00	671.00	659.00	633.00	590.00	584.00	588.00	610.00	628.00	681.00	705.00	660.00	632.00	652.00	670.00	640.00	627.00	629.00	572.00	554.00	544.00	544.00	542.00	542.00	541.00	541.00	541.00	541.00	540.00	541.00	542.00	585.00	617.00	600.00	645.00	626.00	681.00	625.00	612.00	575.00	558.00	599.00	664.00	722.00	751.00	785.00	833.00	834.00	802.00	706.00	648.00	614.00	612.00	616.00	645.00	683.00	732.00	705.00	795.00	830.00	838.00	857.00	871.00	805.00	828.00	810.00	839.00	921.00	932.00	933.00	928.00	963.00	1101.00	1087.00	1020.00	932.00	772.00	753.00	708.00	692.00	700.00	738.00	715.00	685.00	654.00	732.00	744.00	711.00	679.00	715.00	758.00	791.00	822.00	825.00	757.00	771.00	782.00	757.00	694.00	666.00	664.00	664.00	723.00	703.00	676.00	644.00	690.00	707.00	661.00	633.00	644.00	648.00	732.00	780.00	769.00	744.00	668.00	635.00	616.00	583.00	552.00	584.00	544.00	568.00	618.00	666.00	619.00	581.00	551.00	534.00	570.00	585.00	570.00	555.00	509.00	496.00	474.00	463.00	456.00	422.00	427.00	428.00	438.00	421.00	442.00	465.00	425.00	402.00	387.00	383.00	381.00	380.00	377.00	378.00	401.00	436.00	433.00	436.00	425.00	419.00	421.00	427.00	394.00	386.00	383.00	381.00	376.00	377.00	377.00	389.00	432.00	411.00	409.00	448.00	455.00	504.00	490.00	496.00	513.00	469.00	474.00	487.00	489.00	391.00	352.00	372.00	387.00	415.00	355.00	339.00	330.00	328.00	325.00	324.00	324.00	335.00	339.00	352.00	351.00	353.00	347.00	346.00	340.00	341.00	342.00	341.00	336.00	334.00	307.00	403.00	442.00	473.00	450.00	458.00
820.00	834.00	785.00	718.00	699.00	736.00	823.00	823.00	809.00	797.00	741.00	733.00	727.00	701.00	711.00	818.00	782.00	744.00	714.00	752.00	761.00	745.00	808.00	838.00	779.00	752.00	696.00	677.00	675.00	693.00	675.00	662.00	655.00	617.00	599.00	596.00	597.00	679.00	694.00	690.00	675.00	696.00	654.00	634.00	621.00	609.00	587.00	580.00	577.00	579.00	589.00	655.00	677.00	642.00	607.00	598.00	605.00	626.00	588.00	570.00	547.00	544.00	545.00	545.00	542.00	542.00	542.00	541.00	541.00	541.00	542.00	548.00	544.00	613.00	682.00	672.00	671.00	699.00	690.00	663.00	612.00	582.00	561.00	567.00	631.00	665.00	685.00	781.00	784.00	781.00	822.00	753.00	687.00	640.00	635.00	627.00	631.00	656.00	682.00	674.00	774.00	775.00	765.00	832.00	867.00	892.00	894.00	891.00	907.00	945.00	895.00	876.00	955.00	1032.00	1043.00	1041.00	981.00	920.00	849.00	832.00	748.00	701.00	664.00	751.00	758.00	698.00	643.00	706.00	673.00	657.00	662.00	761.00	772.00	736.00	760.00	797.00	818.00	830.00	791.00	773.00	740.00	717.00	671.00	633.00	635.00	647.00	631.00	639.00	724.00	708.00	662.00	623.00	640.00	713.00	780.00	764.00	719.00	697.00	626.00	628.00	629.00	616.00	528.00	535.00	528.00	533.00	568.00	663.00	651.00	614.00	599.00	578.00	510.00	520.00	542.00	563.00	553.00	530.00	518.00	506.00	468.00	445.00	463.00	474.00	495.00	444.00	470.00	480.00	435.00	456.00	425.00	391.00	381.00	379.00	375.00	374.00	376.00	388.00	404.00	395.00	408.00	415.00	417.00	398.00	388.00	388.00	392.00	406.00	374.00	372.00	370.00	371.00	382.00	371.00	434.00	422.00	405.00	483.00	450.00	428.00	454.00	433.00	402.00	406.00	432.00	426.00	348.00	338.00	342.00	359.00	330.00	331.00	330.00	326.00	331.00	328.00	320.00	324.00	330.00	339.00	342.00	342.00	343.00	341.00	336.00	333.00	335.00	333.00	332.00	334.00	308.00	350.00	364.00	444.00	482.00	463.00
789.00	801.00	759.00	701.00	698.00	793.00	809.00	813.00	808.00	829.00	774.00	770.00	750.00	702.00	690.00	807.00	781.00	741.00	717.00	684.00	697.00	745.00	809.00	809.00	797.00	768.00	717.00	690.00	649.00	639.00	667.00	710.00	710.00	683.00	627.00	593.00	593.00	679.00	724.00	750.00	749.00	753.00	667.00	672.00	672.00	629.00	606.00	591.00	577.00	571.00	571.00	621.00	651.00	646.00	620.00	587.00	575.00	570.00	569.00	548.00	546.00	545.00	545.00	544.00	543.00	542.00	542.00	542.00	541.00	542.00	546.00	599.00	575.00	566.00	617.00	648.00	685.00	699.00	687.00	630.00	626.00	641.00	570.00	567.00	580.00	641.00	641.00	714.00	699.00	744.00	784.00	748.00	724.00	709.00	701.00	674.00	656.00	671.00	670.00	658.00	688.00	702.00	745.00	776.00	826.00	974.00	986.00	972.00	975.00	842.00	830.00	889.00	970.00	1037.00	912.00	889.00	854.00	891.00	838.00	783.00	714.00	695.00	662.00	720.00	758.00	706.00	639.00	644.00	635.00	667.00	721.00	729.00	704.00	701.00	742.00	776.00	855.00	832.00	835.00	819.00	725.00	705.00	705.00	704.00	689.00	611.00	598.00	650.00	675.00	734.00	687.00	624.00	678.00	736.00	784.00	729.00	683.00	665.00	653.00	608.00	583.00	574.00	542.00	513.00	503.00	503.00	522.00	618.00	627.00	630.00	648.00	607.00	529.00	503.00	486.00	489.00	505.00	506.00	485.00	501.00	486.00	462.00	475.00	511.00	494.00	497.00	511.00	495.00	499.00	501.00	453.00	414.00	393.00	384.00	373.00	373.00	372.00	371.00	371.00	383.00	388.00	399.00	414.00	405.00	400.00	408.00	432.00	440.00	386.00	381.00	369.00	366.00	362.00	362.00	384.00	376.00	406.00	414.00	441.00	393.00	406.00	449.00	420.00	377.00	373.00	368.00	353.00	337.00	333.00	332.00	335.00	332.00	328.00	335.00	345.00	348.00	332.00	364.00	354.00	329.00	336.00	337.00	337.00	338.00	337.00	336.00	332.00	328.00	329.00	330.00	328.00	308.00	309.00	382.00	407.00	421.00
774.00	727.00	707.00	689.00	705.00	829.00	793.00	756.00	763.00	798.00	784.00	748.00	728.00	694.00	681.00	778.00	788.00	777.00	743.00	670.00	675.00	727.00	758.00	784.00	742.00	755.00	732.00	718.00	659.00	629.00	620.00	638.00	651.00	628.00	626.00	602.00	589.00	628.00	667.00	751.00	803.00	750.00	735.00	720.00	671.00	653.00	611.00	593.00	580.00	574.00	567.00	571.00	589.00	610.00	649.00	596.00	587.00	551.00	548.00	547.00	546.00	546.00	545.00	544.00	544.00	543.00	543.00	543.00	542.00	546.00	575.00	648.00	617.00	556.00	571.00	618.00	628.00	676.00	670.00	665.00	702.00	715.00	614.00	576.00	574.00	596.00	605.00	630.00	644.00	745.00	742.00	748.00	790.00	800.00	766.00	725.00	683.00	727.00	751.00	676.00	736.00	720.00	722.00	764.00	835.00	941.00	942.00	864.00	858.00	818.00	904.00	968.00	989.00	968.00	853.00	798.00	780.00	824.00	845.00	805.00	725.00	677.00	649.00	651.00	694.00	707.00	642.00	617.00	646.00	687.00	700.00	664.00	676.00	713.00	767.00	823.00	848.00	809.00	791.00	820.00	760.00	678.00	640.00	652.00	657.00	668.00	603.00	592.00	620.00	695.00	669.00	607.00	662.00	731.00	803.00	753.00	705.00	667.00	700.00	690.00	650.00	632.00	607.00	573.00	556.00	530.00	499.00	517.00	556.00	545.00	590.00	620.00	579.00	558.00	514.00	493.00	473.00	463.00	456.00	450.00	444.00	435.00	428.00	459.00	471.00	486.00	538.00	563.00	528.00	479.00	457.00	444.00	437.00	432.00	373.00	372.00	370.00	370.00	369.00	370.00	379.00	386.00	403.00	405.00	449.00	436.00	460.00	458.00	435.00	426.00	408.00	392.00	363.00	359.00	360.00	369.00	374.00	386.00	424.00	388.00	384.00	425.00	431.00	404.00	354.00	337.00	337.00	338.00	337.00	335.00	342.00	328.00	345.00	371.00	360.00	378.00	384.00	401.00	416.00	316.00	326.00	332.00	333.00	333.00	335.00	335.00	333.00	329.00	325.00	327.00	331.00	329.00	327.00	310.00	310.00	392.00
742.00	716.00	685.00	687.00	725.00	786.00	780.00	746.00	722.00	735.00	790.00	762.00	730.00	692.00	674.00	755.00	739.00	719.00	742.00	672.00	654.00	675.00	687.00	710.00	706.00	688.00	668.00	665.00	634.00	625.00	622.00	616.00	613.00	603.00	597.00	593.00	587.00	616.00	689.00	741.00	782.00	742.00	674.00	707.00	724.00	713.00	608.00	605.00	600.00	586.00	571.00	559.00	558.00	567.00	583.00	558.00	550.00	548.00	547.00	547.00	546.00	546.00	545.00	544.00	544.00	544.00	543.00	543.00	559.00	570.00	630.00	647.00	619.00	563.00	566.00	578.00	608.00	634.00	712.00	724.00	767.00	773.00	655.00	624.00	584.00	581.00	597.00	676.00	668.00	640.00	648.00	706.00	742.00	775.00	779.00	750.00	725.00	738.00	765.00	702.00	800.00	774.00	769.00	832.00	877.00	834.00	900.00	874.00	800.00	876.00	930.00	952.00	897.00	845.00	834.00	767.00	724.00	765.00	794.00	831.00	745.00	701.00	713.00	632.00	624.00	643.00	644.00	608.00	645.00	647.00	691.00	643.00	681.00	713.00	763.00	785.00	799.00	753.00	769.00	782.00	701.00	671.00	676.00	659.00	638.00	603.00	592.00	575.00	577.00	667.00	624.00	582.00	682.00	718.00	776.00	778.00	724.00	678.00	635.00	708.00	753.00	725.00	669.00	626.00	589.00	554.00	532.00	486.00	480.00	492.00	523.00	579.00	574.00	569.00	550.00	550.00	525.00	519.00	514.00	510.00	494.00	491.00	464.00	417.00	421.00	490.00	548.00	549.00	491.00	479.00	423.00	427.00	453.00	457.00	377.00	370.00	369.00	368.00	368.00	367.00	368.00	374.00	380.00	408.00	470.00	454.00	448.00	437.00	408.00	406.00	392.00	403.00	360.00	359.00	357.00	356.00	354.00	359.00	387.00	389.00	357.00	392.00	378.00	359.00	349.00	339.00	340.00	337.00	361.00	404.00	358.00	336.00	354.00	391.00	410.00	431.00	417.00	396.00	375.00	322.00	313.00	326.00	330.00	331.00	333.00	333.00	332.00	332.00	326.00	323.00	323.00	323.00	325.00	327.00	316.00	313.00
742.00	716.00	685.00	687.00	725.00	786.00	780.00	746.00	722.00	735.00	790.00	762.00	730.00	692.00	674.00	755.00	739.00	719.00	742.00	672.00	654.00	675.00	687.00	710.00	706.00	688.00	668.00	665.00	634.00	625.00	622.00	616.00	613.00	603.00	597.00	593.00	587.00	616.00	689.00	741.00	782.00	742.00	674.00	707.00	724.00	713.00	608.00	605.00	600.00	586.00	571.00	559.00	558.00	567.00	583.00	558.00	550.00	548.00	547.00	547.00	546.00	546.00	545.00	544.00	544.00	544.00	543.00	543.00	559.00	570.00	630.00	647.00	619.00	563.00	566.00	578.00	608.00	634.00	712.00	724.00	767.00	773.00	655.00	624.00	584.00	581.00	597.00	676.00	668.00	640.00	648.00	706.00	742.00	775.00	779.00	750.00	725.00	738.00	765.00	702.00	800.00	774.00	769.00	832.00	877.00	834.00	900.00	874.00	800.00	876.00	930.00	952.00	897.00	845.00	834.00	767.00	724.00	765.00	794.00	831.00	745.00	701.00	713.00	632.00	624.00	643.00	644.00	608.00	645.00	647.00	691.00	643.00	681.00	713.00	763.00	785.00	799.00	753.00	769.00	782.00	701.00	671.00	676.00	659.00	638.00	603.00	592.00	575.00	577.00	667.00	624.00	582.00	682.00	718.00	776.00	778.00	724.00	678.00	635.00	708.00	753.00	725.00	669.00	626.00	589.00	554.00	532.00	486.00	480.00	492.00	523.00	579.00	574.00	569.00	550.00	550.00	525.00	519.00	514.00	510.00	494.00	491.00	464.00	417.00	421.00	490.00	548.00	549.00	491.00	479.00	423.00	427.00	453.00	457.00	377.00	370.00	369.00	368.00	368.00	367.00	368.00	374.00	380.00	408.00	470.00	454.00	448.00	437.00	408.00	406.00	392.00	403.00	360.00	359.00	357.00	356.00	354.00	359.00	387.00	389.00	357.00	392.00	378.00	359.00	349.00	339.00	340.00	337.00	361.00	404.00	358.00	336.00	354.00	391.00	410.00	431.00	417.00	396.00	375.00	322.00	313.00	326.00	330.00	331.00	333.00	333.00	332.00	332.00	326.00	323.00	323.00	323.00	325.00	327.00	316.00	313.00
678.00	679.00	736.00	774.00	754.00	756.00	799.00	788.00	758.00	727.00	685.00	692.00	730.00	695.00	661.00	711.00	721.00	685.00	675.00	654.00	638.00	636.00	653.00	666.00	730.00	737.00	713.00	680.00	672.00	695.00	702.00	700.00	683.00	692.00	690.00	669.00	585.00	581.00	613.00	666.00	714.00	717.00	643.00	631.00	682.00	733.00	707.00	732.00	712.00	668.00	626.00	567.00	552.00	551.00	551.00	549.00	550.00	549.00	548.00	547.00	547.00	546.00	547.00	546.00	545.00	547.00	575.00	622.00	651.00	657.00	694.00	682.00	640.00	588.00	607.00	597.00	585.00	604.00	735.00	782.00	816.00	827.00	667.00	689.00	723.00	672.00	608.00	615.00	673.00	702.00	716.00	732.00	741.00	733.00	723.00	740.00	840.00	861.00	868.00	790.00	817.00	876.00	890.00	888.00	847.00	747.00	792.00	794.00	725.00	859.00	826.00	780.00	735.00	768.00	822.00	802.00	792.00	738.00	671.00	716.00	729.00	688.00	668.00	695.00	684.00	634.00	602.00	592.00	601.00	602.00	613.00	680.00	710.00	731.00	735.00	692.00	685.00	687.00	751.00	806.00	759.00	763.00	764.00	761.00	720.00	690.00	683.00	648.00	622.00	554.00	570.00	558.00	618.00	631.00	684.00	734.00	689.00	688.00	607.00	689.00	709.00	660.00	596.00	552.00	544.00	537.00	533.00	546.00	553.00	521.00	464.00	455.00	447.00	445.00	442.00	439.00	428.00	425.00	421.00	418.00	416.00	417.00	440.00	448.00	425.00	415.00	456.00	454.00	455.00	425.00	443.00	417.00	398.00	435.00	409.00	396.00	377.00	366.00	365.00	364.00	363.00	363.00	365.00	379.00	394.00	408.00	431.00	438.00	420.00	401.00	401.00	366.00	361.00	361.00	357.00	355.00	354.00	352.00	351.00	350.00	350.00	348.00	356.00	344.00	343.00	342.00	384.00	418.00	429.00	395.00	381.00	355.00	378.00	411.00	453.00	504.00	484.00	454.00	453.00	393.00	360.00	324.00	306.00	310.00	325.00	321.00	337.00	339.00	332.00	334.00	317.00	309.00	311.00	319.00	321.00	320.00
669.00	722.00	780.00	756.00	728.00	744.00	767.00	787.00	782.00	749.00	694.00	677.00	667.00	669.00	656.00	720.00	726.00	723.00	723.00	690.00	652.00	630.00	627.00	635.00	673.00	703.00	723.00	691.00	716.00	743.00	760.00	749.00	733.00	734.00	734.00	695.00	595.00	579.00	579.00	617.00	695.00	718.00	633.00	612.00	647.00	699.00	791.00	834.00	775.00	710.00	646.00	557.00	551.00	551.00	551.00	550.00	549.00	548.00	548.00	547.00	547.00	548.00	554.00	571.00	555.00	561.00	567.00	577.00	624.00	701.00	715.00	665.00	630.00	601.00	614.00	649.00	593.00	608.00	767.00	837.00	840.00	793.00	753.00	723.00	673.00	638.00	618.00	604.00	639.00	660.00	670.00	714.00	746.00	766.00	783.00	776.00	809.00	857.00	869.00	812.00	783.00	849.00	880.00	837.00	809.00	759.00	727.00	711.00	698.00	868.00	800.00	733.00	700.00	770.00	751.00	760.00	822.00	821.00	708.00	660.00	694.00	723.00	723.00	622.00	648.00	682.00	657.00	584.00	588.00	618.00	651.00	721.00	716.00	678.00	649.00	667.00	747.00	745.00	759.00	762.00	719.00	695.00	683.00	706.00	676.00	616.00	598.00	575.00	573.00	574.00	550.00	549.00	576.00	586.00	686.00	716.00	672.00	617.00	602.00	668.00	669.00	635.00	614.00	614.00	612.00	614.00	592.00	569.00	525.00	477.00	474.00	479.00	475.00	517.00	541.00	508.00	506.00	493.00	451.00	434.00	443.00	410.00	407.00	403.00	405.00	396.00	396.00	408.00	399.00	398.00	389.00	386.00	382.00	385.00	372.00	370.00	368.00	367.00	365.00	362.00	361.00	361.00	360.00	362.00	372.00	394.00	438.00	453.00	413.00	389.00	369.00	363.00	393.00	388.00	363.00	357.00	355.00	352.00	352.00	354.00	351.00	348.00	346.00	345.00	342.00	396.00	461.00	438.00	444.00	435.00	381.00	368.00	394.00	433.00	463.00	455.00	454.00	413.00	436.00	438.00	396.00	395.00	379.00	341.00	300.00	301.00	305.00	316.00	311.00	307.00	300.00	304.00	313.00	315.00	315.00	315.00
669.00	722.00	780.00	756.00	728.00	744.00	767.00	787.00	782.00	749.00	694.00	677.00	667.00	669.00	656.00	720.00	726.00	723.00	723.00	690.00	652.00	630.00	627.00	635.00	673.00	703.00	723.00	691.00	716.00	743.00	760.00	749.00	733.00	734.00	734.00	695.00	595.00	579.00	579.00	617.00	695.00	718.00	633.00	612.00	647.00	699.00	791.00	834.00	775.00	710.00	646.00	557.00	551.00	551.00	551.00	550.00	549.00	548.00	548.00	547.00	547.00	548.00	554.00	571.00	555.00	561.00	567.00	577.00	624.00	701.00	715.00	665.00	630.00	601.00	614.00	649.00	593.00	608.00	767.00	837.00	840.00	793.00	753.00	723.00	673.00	638.00	618.00	604.00	639.00	660.00	670.00	714.00	746.00	766.00	783.00	776.00	809.00	857.00	869.00	812.00	783.00	849.00	880.00	837.00	809.00	759.00	727.00	711.00	698.00	868.00	800.00	733.00	700.00	770.00	751.00	760.00	822.00	821.00	708.00	660.00	694.00	723.00	723.00	622.00	648.00	682.00	657.00	584.00	588.00	618.00	651.00	721.00	716.00	678.00	649.00	667.00	747.00	745.00	759.00	762.00	719.00	695.00	683.00	706.00	676.00	616.00	598.00	575.00	573.00	574.00	550.00	549.00	576.00	586.00	686.00	716.00	672.00	617.00	602.00	668.00	669.00	635.00	614.00	614.00	612.00	614.00	592.00	569.00	525.00	477.00	474.00	479.00	475.00	517.00	541.00	508.00	506.00	493.00	451.00	434.00	443.00	410.00	407.00	403.00	405.00	396.00	396.00	408.00	399.00	398.00	389.00	386.00	382.00	385.00	372.00	370.00	368.00	367.00	365.00	362.00	361.00	361.00	360.00	362.00	372.00	394.00	438.00	453.00	413.00	389.00	369.00	363.00	393.00	388.00	363.00	357.00	355.00	352.00	352.00	354.00	351.00	348.00	346.00	345.00	342.00	396.00	461.00	438.00	444.00	435.00	381.00	368.00	394.00	433.00	463.00	455.00	454.00	413.00	436.00	438.00	396.00	395.00	379.00	341.00	300.00	301.00	305.00	316.00	311.00	307.00	300.00	304.00	313.00	315.00	315.00	315.00
664.00	747.00	769.00	733.00	710.00	760.00	735.00	756.00	756.00	736.00	682.00	670.00	660.00	653.00	651.00	732.00	734.00	749.00	749.00	710.00	665.00	640.00	623.00	618.00	649.00	670.00	690.00	718.00	754.00	791.00	744.00	720.00	761.00	697.00	643.00	620.00	586.00	577.00	576.00	577.00	632.00	706.00	616.00	603.00	649.00	727.00	740.00	722.00	654.00	630.00	599.00	551.00	551.00	551.00	551.00	550.00	550.00	549.00	549.00	549.00	551.00	553.00	571.00	594.00	588.00	588.00	589.00	597.00	623.00	671.00	688.00	673.00	666.00	617.00	620.00	662.00	640.00	607.00	769.00	812.00	837.00	820.00	760.00	709.00	685.00	657.00	622.00	612.00	620.00	637.00	689.00	759.00	794.00	819.00	816.00	852.00	833.00	823.00	833.00	852.00	840.00	868.00	909.00	872.00	854.00	789.00	736.00	704.00	687.00	787.00	757.00	710.00	679.00	756.00	692.00	749.00	806.00	822.00	761.00	729.00	632.00	633.00	653.00	609.00	601.00	629.00	643.00	579.00	584.00	602.00	615.00	690.00	638.00	625.00	647.00	696.00	793.00	802.00	746.00	700.00	691.00	643.00	624.00	613.00	602.00	598.00	599.00	618.00	677.00	665.00	591.00	554.00	543.00	553.00	629.00	674.00	619.00	567.00	603.00	667.00	715.00	690.00	643.00	603.00	562.00	552.00	522.00	488.00	476.00	501.00	559.00	527.00	495.00	547.00	597.00	583.00	523.00	494.00	439.00	489.00	484.00	419.00	414.00	402.00	399.00	394.00	392.00	390.00	388.00	386.00	381.00	379.00	377.00	376.00	371.00	370.00	368.00	367.00	365.00	363.00	361.00	360.00	359.00	358.00	361.00	371.00	393.00	417.00	390.00	378.00	369.00	372.00	405.00	387.00	362.00	362.00	365.00	359.00	356.00	364.00	370.00	364.00	347.00	342.00	353.00	471.00	483.00	496.00	490.00	438.00	392.00	415.00	404.00	438.00	467.00	397.00	417.00	385.00	388.00	436.00	398.00	372.00	357.00	342.00	307.00	301.00	294.00	299.00	298.00	296.00	298.00	306.00	310.00	305.00	306.00	308.00
660.00	740.00	758.00	720.00	698.00	760.00	722.00	711.00	756.00	730.00	682.00	670.00	655.00	647.00	646.00	697.00	690.00	716.00	701.00	726.00	705.00	661.00	629.00	614.00	618.00	627.00	669.00	696.00	720.00	753.00	737.00	687.00	663.00	628.00	615.00	608.00	595.00	575.00	574.00	573.00	577.00	626.00	604.00	598.00	682.00	751.00	659.00	688.00	618.00	566.00	554.00	552.00	552.00	552.00	551.00	551.00	550.00	550.00	549.00	549.00	554.00	556.00	559.00	582.00	637.00	641.00	634.00	632.00	668.00	703.00	721.00	731.00	719.00	659.00	647.00	669.00	707.00	643.00	709.00	770.00	783.00	775.00	709.00	690.00	669.00	645.00	620.00	652.00	654.00	678.00	665.00	764.00	804.00	844.00	876.00	868.00	907.00	898.00	872.00	811.00	830.00	882.00	890.00	867.00	813.00	759.00	750.00	740.00	707.00	679.00	682.00	676.00	658.00	717.00	681.00	748.00	736.00	758.00	806.00	794.00	675.00	640.00	633.00	619.00	608.00	587.00	578.00	574.00	584.00	615.00	654.00	629.00	611.00	653.00	694.00	694.00	743.00	800.00	763.00	728.00	773.00	683.00	660.00	646.00	620.00	667.00	674.00	674.00	741.00	693.00	652.00	607.00	536.00	529.00	550.00	598.00	561.00	549.00	677.00	723.00	733.00	659.00	580.00	538.00	522.00	530.00	522.00	505.00	492.00	533.00	595.00	585.00	548.00	587.00	570.00	511.00	466.00	458.00	464.00	478.00	442.00	452.00	452.00	431.00	423.00	408.00	422.00	409.00	392.00	400.00	395.00	386.00	379.00	378.00	373.00	372.00	370.00	372.00	373.00	363.00	362.00	360.00	359.00	357.00	356.00	356.00	359.00	370.00	425.00	392.00	377.00	397.00	394.00	374.00	378.00	381.00	398.00	372.00	368.00	395.00	391.00	354.00	336.00	338.00	388.00	462.00	505.00	520.00	461.00	416.00	449.00	456.00	436.00	427.00	407.00	370.00	379.00	359.00	365.00	394.00	373.00	353.00	338.00	331.00	318.00	315.00	291.00	292.00	295.00	294.00	297.00	301.00	300.00	298.00	300.00	306.00
657.00	769.00	781.00	720.00	687.00	762.00	705.00	686.00	733.00	737.00	696.00	695.00	665.00	641.00	641.00	667.00	674.00	688.00	680.00	668.00	669.00	648.00	627.00	613.00	608.00	619.00	648.00	647.00	670.00	717.00	752.00	725.00	694.00	653.00	650.00	630.00	628.00	578.00	571.00	571.00	571.00	576.00	603.00	584.00	631.00	692.00	591.00	594.00	562.00	554.00	554.00	553.00	553.00	552.00	552.00	551.00	551.00	551.00	559.00	565.00	556.00	558.00	561.00	570.00	620.00	633.00	624.00	656.00	671.00	668.00	687.00	694.00	718.00	739.00	705.00	709.00	736.00	666.00	650.00	682.00	711.00	755.00	772.00	745.00	694.00	674.00	628.00	725.00	696.00	752.00	738.00	708.00	760.00	813.00	856.00	897.00	912.00	881.00	837.00	780.00	798.00	812.00	854.00	887.00	872.00	859.00	825.00	773.00	732.00	700.00	663.00	647.00	637.00	635.00	674.00	711.00	675.00	724.00	754.00	719.00	709.00	722.00	712.00	715.00	697.00	673.00	588.00	571.00	597.00	649.00	684.00	600.00	621.00	650.00	686.00	736.00	753.00	798.00	834.00	829.00	795.00	745.00	750.00	691.00	685.00	735.00	784.00	739.00	740.00	613.00	582.00	582.00	551.00	534.00	521.00	532.00	534.00	562.00	657.00	706.00	714.00	665.00	578.00	550.00	595.00	576.00	555.00	539.00	519.00	516.00	559.00	617.00	562.00	536.00	502.00	498.00	535.00	490.00	492.00	463.00	470.00	538.00	518.00	517.00	510.00	444.00	437.00	404.00	411.00	455.00	468.00	426.00	394.00	383.00	383.00	393.00	408.00	422.00	402.00	371.00	369.00	365.00	359.00	357.00	355.00	355.00	354.00	355.00	410.00	400.00	396.00	427.00	403.00	397.00	410.00	416.00	428.00	364.00	353.00	355.00	353.00	337.00	336.00	344.00	370.00	396.00	487.00	515.00	476.00	456.00	458.00	434.00	401.00	388.00	389.00	384.00	364.00	356.00	348.00	332.00	334.00	329.00	326.00	325.00	321.00	316.00	289.00	289.00	292.00	294.00	293.00	294.00	293.00	296.00	302.00	305.00
671.00	772.00	745.00	701.00	676.00	748.00	709.00	684.00	677.00	707.00	672.00	699.00	680.00	637.00	636.00	679.00	692.00	693.00	688.00	662.00	650.00	639.00	628.00	613.00	600.00	601.00	617.00	633.00	641.00	668.00	696.00	699.00	722.00	726.00	696.00	660.00	683.00	614.00	575.00	568.00	568.00	567.00	598.00	580.00	577.00	616.00	562.00	556.00	555.00	555.00	554.00	553.00	553.00	553.00	552.00	551.00	551.00	583.00	610.00	614.00	572.00	564.00	564.00	566.00	573.00	578.00	585.00	601.00	650.00	622.00	641.00	657.00	672.00	735.00	752.00	743.00	700.00	654.00	702.00	673.00	679.00	717.00	803.00	787.00	751.00	694.00	641.00	775.00	767.00	766.00	800.00	752.00	745.00	783.00	839.00	885.00	857.00	867.00	822.00	751.00	746.00	786.00	837.00	870.00	856.00	862.00	833.00	779.00	805.00	807.00	755.00	719.00	680.00	649.00	618.00	641.00	655.00	717.00	766.00	737.00	658.00	672.00	704.00	730.00	674.00	632.00	573.00	572.00	614.00	641.00	614.00	611.00	653.00	695.00	737.00	756.00	801.00	800.00	818.00	863.00	771.00	846.00	805.00	760.00	754.00	794.00	776.00	721.00	683.00	634.00	644.00	643.00	602.00	609.00	515.00	523.00	541.00	584.00	592.00	606.00	624.00	639.00	609.00	576.00	633.00	634.00	646.00	586.00	554.00	557.00	547.00	584.00	579.00	536.00	513.00	544.00	542.00	558.00	516.00	511.00	506.00	586.00	556.00	553.00	513.00	502.00	421.00	425.00	449.00	478.00	472.00	432.00	398.00	391.00	423.00	455.00	438.00	402.00	388.00	399.00	403.00	377.00	364.00	356.00	354.00	354.00	353.00	353.00	363.00	367.00	397.00	431.00	424.00	443.00	414.00	421.00	410.00	355.00	366.00	366.00	339.00	337.00	338.00	342.00	372.00	428.00	483.00	495.00	472.00	446.00	418.00	409.00	415.00	410.00	435.00	441.00	400.00	410.00	391.00	351.00	327.00	318.00	314.00	312.00	315.00	305.00	286.00	287.00	291.00	293.00	292.00	292.00	293.00	297.00	301.00	301.00
671.00	772.00	745.00	701.00	676.00	748.00	709.00	684.00	677.00	707.00	672.00	699.00	680.00	637.00	636.00	679.00	692.00	693.00	688.00	662.00	650.00	639.00	628.00	613.00	600.00	601.00	617.00	633.00	641.00	668.00	696.00	699.00	722.00	726.00	696.00	660.00	683.00	614.00	575.00	568.00	568.00	567.00	598.00	580.00	577.00	616.00	562.00	556.00	555.00	555.00	554.00	553.00	553.00	553.00	552.00	551.00	551.00	583.00	610.00	614.00	572.00	564.00	564.00	566.00	573.00	578.00	585.00	601.00	650.00	622.00	641.00	657.00	672.00	735.00	752.00	743.00	700.00	654.00	702.00	673.00	679.00	717.00	803.00	787.00	751.00	694.00	641.00	775.00	767.00	766.00	800.00	752.00	745.00	783.00	839.00	885.00	857.00	867.00	822.00	751.00	746.00	786.00	837.00	870.00	856.00	862.00	833.00	779.00	805.00	807.00	755.00	719.00	680.00	649.00	618.00	641.00	655.00	717.00	766.00	737.00	658.00	672.00	704.00	730.00	674.00	632.00	573.00	572.00	614.00	641.00	614.00	611.00	653.00	695.00	737.00	756.00	801.00	800.00	818.00	863.00	771.00	846.00	805.00	760.00	754.00	794.00	776.00	721.00	683.00	634.00	644.00	643.00	602.00	609.00	515.00	523.00	541.00	584.00	592.00	606.00	624.00	639.00	609.00	576.00	633.00	634.00	646.00	586.00	554.00	557.00	547.00	584.00	579.00	536.00	513.00	544.00	542.00	558.00	516.00	511.00	506.00	586.00	556.00	553.00	513.00	502.00	421.00	425.00	449.00	478.00	472.00	432.00	398.00	391.00	423.00	455.00	438.00	402.00	388.00	399.00	403.00	377.00	364.00	356.00	354.00	354.00	353.00	353.00	363.00	367.00	397.00	431.00	424.00	443.00	414.00	421.00	410.00	355.00	366.00	366.00	339.00	337.00	338.00	342.00	372.00	428.00	483.00	495.00	472.00	446.00	418.00	409.00	415.00	410.00	435.00	441.00	400.00	410.00	391.00	351.00	327.00	318.00	314.00	312.00	315.00	305.00	286.00	287.00	291.00	293.00	292.00	292.00	293.00	297.00	301.00	301.00
705.00	725.00	677.00	656.00	672.00	729.00	711.00	688.00	670.00	653.00	648.00	648.00	633.00	628.00	632.00	696.00	712.00	691.00	678.00	632.00	625.00	619.00	613.00	612.00	593.00	591.00	608.00	642.00	639.00	608.00	618.00	648.00	715.00	759.00	750.00	718.00	733.00	687.00	617.00	575.00	564.00	563.00	563.00	567.00	563.00	559.00	556.00	557.00	556.00	556.00	555.00	554.00	553.00	553.00	553.00	556.00	571.00	616.00	629.00	626.00	601.00	589.00	578.00	577.00	604.00	619.00	623.00	606.00	593.00	635.00	673.00	665.00	673.00	736.00	774.00	776.00	720.00	752.00	772.00	776.00	810.00	813.00	798.00	811.00	763.00	703.00	667.00	718.00	789.00	848.00	883.00	866.00	871.00	859.00	823.00	793.00	751.00	752.00	790.00	820.00	739.00	719.00	713.00	696.00	701.00	797.00	831.00	860.00	812.00	989.00	968.00	896.00	832.00	804.00	690.00	622.00	597.00	605.00	673.00	730.00	726.00	668.00	617.00	610.00	588.00	557.00	558.00	603.00	603.00	612.00	623.00	691.00	720.00	734.00	769.00	769.00	692.00	764.00	844.00	813.00	715.00	677.00	676.00	716.00	757.00	658.00	665.00	737.00	783.00	712.00	647.00	609.00	623.00	616.00	533.00	507.00	506.00	522.00	644.00	689.00	698.00	708.00	710.00	650.00	617.00	574.00	594.00	657.00	612.00	585.00	608.00	608.00	625.00	594.00	640.00	635.00	612.00	622.00	636.00	604.00	605.00	577.00	557.00	485.00	469.00	465.00	479.00	482.00	524.00	480.00	428.00	417.00	405.00	407.00	502.00	478.00	479.00	474.00	463.00	410.00	394.00	390.00	398.00	381.00	354.00	354.00	352.00	351.00	350.00	350.00	351.00	358.00	433.00	461.00	426.00	396.00	383.00	369.00	345.00	338.00	338.00	346.00	350.00	360.00	370.00	403.00	436.00	425.00	430.00	438.00	454.00	452.00	427.00	419.00	409.00	365.00	355.00	350.00	350.00	331.00	324.00	316.00	310.00	305.00	296.00	287.00	284.00	285.00	287.00	286.00	286.00	286.00	285.00	286.00	288.00	295.00
695.00	676.00	652.00	652.00	672.00	735.00	757.00	716.00	684.00	661.00	631.00	653.00	627.00	626.00	644.00	706.00	729.00	720.00	681.00	645.00	640.00	636.00	625.00	616.00	590.00	587.00	608.00	659.00	670.00	615.00	604.00	632.00	683.00	665.00	639.00	648.00	648.00	642.00	616.00	576.00	563.00	562.00	561.00	560.00	560.00	559.00	557.00	558.00	557.00	556.00	555.00	554.00	554.00	554.00	557.00	560.00	573.00	592.00	622.00	640.00	620.00	601.00	593.00	585.00	605.00	661.00	702.00	688.00	616.00	605.00	612.00	644.00	688.00	728.00	771.00	818.00	789.00	790.00	852.00	881.00	908.00	927.00	827.00	814.00	763.00	697.00	694.00	761.00	807.00	901.00	869.00	800.00	783.00	780.00	760.00	750.00	716.00	761.00	795.00	845.00	773.00	796.00	834.00	790.00	715.00	709.00	776.00	810.00	751.00	919.00	972.00	977.00	903.00	840.00	749.00	685.00	602.00	589.00	675.00	735.00	738.00	679.00	642.00	556.00	550.00	559.00	617.00	694.00	685.00	692.00	694.00	774.00	792.00	789.00	766.00	728.00	698.00	759.00	824.00	827.00	801.00	697.00	645.00	655.00	716.00	658.00	639.00	727.00	724.00	669.00	647.00	637.00	572.00	557.00	530.00	517.00	505.00	499.00	610.00	685.00	651.00	640.00	692.00	663.00	625.00	577.00	566.00	666.00	592.00	562.00	572.00	594.00	636.00	639.00	634.00	625.00	631.00	673.00	680.00	631.00	561.00	511.00	549.00	474.00	470.00	526.00	539.00	526.00	549.00	514.00	465.00	433.00	419.00	433.00	544.00	544.00	533.00	484.00	453.00	416.00	413.00	403.00	394.00	368.00	357.00	353.00	352.00	351.00	350.00	349.00	348.00	348.00	406.00	452.00	373.00	355.00	341.00	340.00	339.00	339.00	340.00	369.00	376.00	371.00	385.00	438.00	383.00	409.00	383.00	385.00	427.00	418.00	404.00	393.00	399.00	416.00	392.00	387.00	407.00	347.00	330.00	322.00	315.00	308.00	286.00	282.00	283.00	284.00	283.00	284.00	286.00	287.00	288.00	292.00	299.00	300.00
695.00	676.00	652.00	652.00	672.00	735.00	757.00	716.00	684.00	661.00	631.00	653.00	627.00	626.00	644.00	706.00	729.00	720.00	681.00	645.00	640.00	636.00	625.00	616.00	590.00	587.00	608.00	659.00	670.00	615.00	604.00	632.00	683.00	665.00	639.00	648.00	648.00	642.00	616.00	576.00	563.00	562.00	561.00	560.00	560.00	559.00	557.00	558.00	557.00	556.00	555.00	554.00	554.00	554.00	557.00	560.00	573.00	592.00	622.00	640.00	620.00	601.00	593.00	585.00	605.00	661.00	702.00	688.00	616.00	605.00	612.00	644.00	688.00	728.00	771.00	818.00	789.00	790.00	852.00	881.00	908.00	927.00	827.00	814.00	763.00	697.00	694.00	761.00	807.00	901.00	869.00	800.00	783.00	780.00	760.00	750.00	716.00	761.00	795.00	845.00	773.00	796.00	834.00	790.00	715.00	709.00	776.00	810.00	751.00	919.00	972.00	977.00	903.00	840.00	749.00	685.00	602.00	589.00	675.00	735.00	738.00	679.00	642.00	556.00	550.00	559.00	617.00	694.00	685.00	692.00	694.00	774.00	792.00	789.00	766.00	728.00	698.00	759.00	824.00	827.00	801.00	697.00	645.00	655.00	716.00	658.00	639.00	727.00	724.00	669.00	647.00	637.00	572.00	557.00	530.00	517.00	505.00	499.00	610.00	685.00	651.00	640.00	692.00	663.00	625.00	577.00	566.00	666.00	592.00	562.00	572.00	594.00	636.00	639.00	634.00	625.00	631.00	673.00	680.00	631.00	561.00	511.00	549.00	474.00	470.00	526.00	539.00	526.00	549.00	514.00	465.00	433.00	419.00	433.00	544.00	544.00	533.00	484.00	453.00	416.00	413.00	403.00	394.00	368.00	357.00	353.00	352.00	351.00	350.00	349.00	348.00	348.00	406.00	452.00	373.00	355.00	341.00	340.00	339.00	339.00	340.00	369.00	376.00	371.00	385.00	438.00	383.00	409.00	383.00	385.00	427.00	418.00	404.00	393.00	399.00	416.00	392.00	387.00	407.00	347.00	330.00	322.00	315.00	308.00	286.00	282.00	283.00	284.00	283.00	284.00	286.00	287.00	288.00	292.00	299.00	300.00
685.00	651.00	642.00	648.00	697.00	781.00	783.00	727.00	689.00	684.00	631.00	626.00	621.00	640.00	712.00	751.00	729.00	719.00	704.00	671.00	673.00	663.00	650.00	630.00	590.00	585.00	586.00	621.00	680.00	623.00	593.00	621.00	674.00	684.00	630.00	598.00	596.00	570.00	566.00	563.00	562.00	561.00	560.00	560.00	559.00	559.00	557.00	557.00	556.00	555.00	555.00	555.00	556.00	559.00	562.00	563.00	568.00	615.00	634.00	656.00	633.00	623.00	610.00	601.00	595.00	613.00	648.00	691.00	669.00	633.00	618.00	621.00	670.00	755.00	764.00	810.00	848.00	862.00	953.00	975.00	973.00	938.00	816.00	777.00	734.00	703.00	749.00	813.00	893.00	949.00	911.00	793.00	752.00	727.00	707.00	703.00	722.00	743.00	766.00	843.00	836.00	881.00	919.00	881.00	805.00	675.00	667.00	696.00	694.00	812.00	932.00	955.00	887.00	830.00	723.00	665.00	623.00	583.00	699.00	767.00	730.00	650.00	585.00	560.00	597.00	654.00	703.00	740.00	758.00	778.00	797.00	778.00	739.00	722.00	690.00	659.00	771.00	808.00	779.00	770.00	767.00	723.00	673.00	641.00	627.00	634.00	619.00	703.00	690.00	694.00	744.00	704.00	634.00	633.00	549.00	559.00	549.00	499.00	551.00	587.00	600.00	679.00	650.00	659.00	607.00	571.00	546.00	606.00	548.00	544.00	582.00	644.00	604.00	601.00	646.00	632.00	598.00	635.00	618.00	599.00	547.00	468.00	511.00	534.00	520.00	584.00	571.00	560.00	561.00	570.00	506.00	462.00	457.00	483.00	490.00	468.00	472.00	463.00	444.00	418.00	391.00	378.00	371.00	366.00	371.00	370.00	366.00	355.00	350.00	348.00	348.00	347.00	397.00	388.00	405.00	348.00	341.00	340.00	341.00	344.00	353.00	356.00	383.00	403.00	419.00	415.00	362.00	384.00	360.00	353.00	415.00	423.00	428.00	441.00	443.00	429.00	440.00	410.00	389.00	365.00	329.00	319.00	311.00	302.00	283.00	283.00	283.00	284.00	285.00	286.00	287.00	288.00	288.00	291.00	294.00	296.00
702.00	670.00	659.00	636.00	671.00	752.00	715.00	708.00	681.00	659.00	623.00	615.00	624.00	690.00	729.00	757.00	794.00	802.00	771.00	720.00	708.00	670.00	642.00	620.00	620.00	606.00	578.00	581.00	615.00	596.00	581.00	602.00	644.00	656.00	613.00	578.00	565.00	564.00	563.00	563.00	562.00	562.00	560.00	560.00	560.00	559.00	557.00	557.00	559.00	560.00	566.00	572.00	578.00	594.00	593.00	568.00	571.00	596.00	615.00	635.00	668.00	657.00	641.00	640.00	611.00	605.00	643.00	721.00	753.00	726.00	689.00	637.00	626.00	687.00	761.00	794.00	812.00	863.00	939.00	961.00	921.00	879.00	781.00	742.00	736.00	779.00	795.00	882.00	927.00	967.00	936.00	871.00	834.00	794.00	743.00	692.00	690.00	721.00	767.00	810.00	825.00	877.00	872.00	881.00	865.00	773.00	696.00	643.00	649.00	833.00	920.00	895.00	813.00	785.00	745.00	709.00	667.00	591.00	663.00	721.00	751.00	662.00	588.00	600.00	637.00	675.00	660.00	696.00	732.00	776.00	807.00	744.00	685.00	650.00	634.00	662.00	781.00	794.00	743.00	692.00	665.00	671.00	706.00	711.00	662.00	606.00	590.00	591.00	610.00	668.00	728.00	718.00	693.00	669.00	610.00	659.00	625.00	517.00	509.00	575.00	637.00	658.00	599.00	731.00	680.00	622.00	563.00	523.00	536.00	566.00	619.00	668.00	647.00	591.00	580.00	612.00	537.00	527.00	539.00	519.00	545.00	451.00	467.00	487.00	505.00	615.00	616.00	576.00	526.00	502.00	484.00	494.00	479.00	471.00	478.00	440.00	432.00	436.00	452.00	453.00	413.00	397.00	377.00	383.00	401.00	393.00	371.00	356.00	353.00	350.00	347.00	347.00	347.00	349.00	348.00	343.00	342.00	342.00	345.00	353.00	376.00	352.00	366.00	384.00	413.00	375.00	351.00	362.00	340.00	366.00	418.00	407.00	408.00	436.00	424.00	373.00	376.00	360.00	346.00	332.00	316.00	309.00	303.00	295.00	283.00	281.00	282.00	284.00	284.00	285.00	288.00	288.00	288.00	290.00	292.00	295.00
731.00	725.00	703.00	643.00	631.00	674.00	696.00	725.00	703.00	681.00	614.00	613.00	625.00	645.00	659.00	711.00	767.00	803.00	779.00	808.00	762.00	695.00	666.00	655.00	672.00	659.00	576.00	574.00	572.00	571.00	570.00	573.00	598.00	596.00	570.00	566.00	566.00	564.00	564.00	563.00	562.00	562.00	560.00	561.00	560.00	559.00	559.00	564.00	570.00	589.00	618.00	637.00	661.00	650.00	604.00	578.00	574.00	615.00	665.00	681.00	722.00	724.00	706.00	714.00	675.00	635.00	616.00	657.00	769.00	778.00	725.00	673.00	646.00	651.00	702.00	713.00	796.00	843.00	847.00	869.00	857.00	839.00	783.00	796.00	810.00	869.00	899.00	894.00	871.00	850.00	855.00	861.00	825.00	778.00	735.00	701.00	676.00	755.00	750.00	727.00	845.00	833.00	774.00	787.00	839.00	845.00	766.00	726.00	653.00	735.00	809.00	829.00	769.00	723.00	801.00	751.00	683.00	603.00	639.00	667.00	702.00	683.00	633.00	543.00	572.00	602.00	639.00	756.00	794.00	805.00	761.00	694.00	641.00	621.00	675.00	751.00	774.00	802.00	779.00	775.00	702.00	618.00	630.00	685.00	684.00	683.00	673.00	670.00	608.00	615.00	631.00	656.00	719.00	655.00	682.00	711.00	630.00	543.00	488.00	525.00	565.00	595.00	618.00	735.00	659.00	561.00	519.00	568.00	590.00	569.00	584.00	630.00	678.00	629.00	558.00	580.00	591.00	555.00	508.00	468.00	484.00	451.00	437.00	457.00	503.00	571.00	566.00	553.00	528.00	495.00	446.00	467.00	460.00	432.00	453.00	458.00	418.00	398.00	419.00	445.00	419.00	396.00	394.00	412.00	391.00	385.00	372.00	375.00	363.00	351.00	348.00	348.00	345.00	345.00	344.00	343.00	343.00	361.00	375.00	369.00	401.00	361.00	371.00	397.00	403.00	354.00	326.00	328.00	344.00	372.00	379.00	358.00	377.00	421.00	423.00	377.00	378.00	366.00	354.00	329.00	322.00	311.00	300.00	290.00	283.00	281.00	281.00	283.00	284.00	283.00	284.00	286.00	286.00	289.00	290.00	293.00
719.00	692.00	677.00	652.00	632.00	620.00	672.00	700.00	721.00	716.00	608.00	615.00	678.00	694.00	692.00	773.00	777.00	816.00	790.00	734.00	733.00	707.00	714.00	706.00	676.00	653.00	573.00	572.00	570.00	570.00	569.00	569.00	569.00	568.00	567.00	567.00	565.00	564.00	563.00	563.00	562.00	562.00	561.00	560.00	560.00	559.00	576.00	585.00	587.00	596.00	675.00	727.00	727.00	662.00	605.00	611.00	580.00	591.00	641.00	660.00	673.00	715.00	759.00	767.00	727.00	706.00	640.00	626.00	710.00	788.00	724.00	683.00	720.00	669.00	654.00	658.00	682.00	719.00	786.00	790.00	777.00	790.00	857.00	897.00	904.00	935.00	963.00	868.00	843.00	792.00	755.00	768.00	832.00	842.00	795.00	743.00	646.00	709.00	693.00	735.00	876.00	822.00	734.00	722.00	797.00	877.00	874.00	837.00	760.00	618.00	662.00	693.00	738.00	670.00	761.00	777.00	703.00	634.00	572.00	566.00	601.00	623.00	596.00	535.00	543.00	603.00	677.00	750.00	750.00	764.00	718.00	626.00	607.00	681.00	717.00	706.00	745.00	790.00	742.00	756.00	735.00	673.00	631.00	597.00	622.00	699.00	732.00	762.00	673.00	554.00	606.00	681.00	737.00	711.00	698.00	668.00	614.00	577.00	507.00	484.00	492.00	531.00	585.00	653.00	560.00	508.00	532.00	620.00	665.00	643.00	628.00	657.00	634.00	628.00	563.00	526.00	613.00	586.00	538.00	494.00	456.00	433.00	417.00	447.00	471.00	526.00	502.00	481.00	485.00	503.00	454.00	428.00	436.00	421.00	423.00	404.00	404.00	384.00	385.00	393.00	397.00	404.00	400.00	412.00	424.00	406.00	396.00	375.00	351.00	352.00	353.00	353.00	355.00	347.00	347.00	349.00	353.00	389.00	409.00	396.00	413.00	383.00	393.00	421.00	387.00	335.00	317.00	330.00	363.00	409.00	350.00	351.00	398.00	379.00	377.00	419.00	428.00	426.00	398.00	371.00	357.00	330.00	297.00	284.00	282.00	282.00	281.00	282.00	282.00	282.00	284.00	284.00	284.00	285.00	287.00	289.00
762.00	725.00	682.00	656.00	646.00	630.00	613.00	634.00	682.00	706.00	605.00	623.00	692.00	763.00	779.00	769.00	812.00	811.00	753.00	675.00	640.00	623.00	645.00	656.00	606.00	589.00	572.00	572.00	570.00	571.00	570.00	570.00	569.00	568.00	567.00	566.00	565.00	564.00	564.00	564.00	562.00	563.00	562.00	561.00	563.00	566.00	605.00	611.00	626.00	654.00	632.00	654.00	678.00	637.00	614.00	623.00	598.00	587.00	595.00	609.00	651.00	696.00	737.00	766.00	736.00	694.00	656.00	650.00	655.00	766.00	763.00	727.00	771.00	720.00	688.00	711.00	689.00	674.00	701.00	712.00	752.00	830.00	895.00	932.00	976.00	1014.00	978.00	847.00	814.00	764.00	745.00	697.00	729.00	771.00	793.00	768.00	640.00	643.00	670.00	813.00	845.00	780.00	711.00	686.00	767.00	801.00	861.00	920.00	859.00	634.00	598.00	612.00	667.00	625.00	714.00	758.00	740.00	723.00	652.00	599.00	547.00	552.00	566.00	531.00	531.00	621.00	688.00	674.00	669.00	702.00	655.00	582.00	638.00	653.00	637.00	645.00	770.00	784.00	726.00	678.00	669.00	661.00	688.00	644.00	578.00	637.00	689.00	720.00	665.00	540.00	593.00	692.00	711.00	675.00	630.00	641.00	660.00	624.00	593.00	497.00	480.00	489.00	585.00	536.00	506.00	546.00	616.00	673.00	738.00	712.00	668.00	626.00	558.00	576.00	541.00	484.00	577.00	529.00	492.00	490.00	484.00	421.00	413.00	514.00	528.00	527.00	471.00	443.00	443.00	462.00	455.00	424.00	407.00	412.00	386.00	382.00	379.00	376.00	374.00	369.00	367.00	365.00	363.00	366.00	386.00	370.00	366.00	354.00	357.00	362.00	371.00	383.00	361.00	356.00	356.00	359.00	367.00	426.00	450.00	439.00	422.00	395.00	407.00	422.00	396.00	360.00	314.00	321.00	356.00	378.00	331.00	370.00	367.00	339.00	364.00	394.00	417.00	391.00	397.00	388.00	379.00	367.00	306.00	283.00	281.00	281.00	281.00	281.00	282.00	281.00	283.00	284.00	284.00	283.00	284.00	287.00
790.00	774.00	710.00	691.00	718.00	676.00	619.00	608.00	614.00	634.00	603.00	647.00	728.00	716.00	741.00	704.00	726.00	801.00	802.00	655.00	596.00	583.00	578.00	576.00	575.00	574.00	573.00	572.00	571.00	571.00	571.00	569.00	569.00	568.00	568.00	567.00	565.00	564.00	565.00	565.00	566.00	567.00	568.00	574.00	580.00	590.00	682.00	652.00	705.00	782.00	737.00	641.00	653.00	636.00	645.00	666.00	658.00	594.00	594.00	610.00	685.00	680.00	693.00	739.00	753.00	699.00	697.00	740.00	655.00	707.00	762.00	784.00	789.00	765.00	754.00	786.00	728.00	699.00	756.00	730.00	725.00	766.00	818.00	896.00	973.00	1021.00	1012.00	940.00	886.00	819.00	810.00	768.00	716.00	673.00	680.00	722.00	674.00	622.00	686.00	819.00	794.00	721.00	677.00	659.00	741.00	746.00	813.00	886.00	861.00	734.00	663.00	597.00	581.00	597.00	703.00	744.00	712.00	719.00	705.00	655.00	573.00	541.00	535.00	529.00	527.00	585.00	649.00	608.00	605.00	591.00	573.00	599.00	609.00	609.00	645.00	704.00	774.00	762.00	782.00	728.00	650.00	626.00	605.00	593.00	570.00	564.00	577.00	607.00	606.00	536.00	551.00	615.00	661.00	657.00	618.00	593.00	635.00	666.00	566.00	556.00	534.00	480.00	517.00	503.00	568.00	647.00	694.00	710.00	749.00	718.00	631.00	559.00	510.00	515.00	491.00	464.00	560.00	545.00	495.00	461.00	443.00	412.00	413.00	479.00	502.00	485.00	462.00	453.00	428.00	418.00	417.00	406.00	398.00	395.00	402.00	419.00	417.00	394.00	386.00	379.00	377.00	372.00	369.00	364.00	357.00	356.00	356.00	356.00	369.00	395.00	408.00	387.00	371.00	375.00	378.00	382.00	381.00	441.00	419.00	434.00	412.00	363.00	351.00	362.00	372.00	349.00	310.00	315.00	350.00	358.00	335.00	366.00	348.00	326.00	369.00	382.00	415.00	400.00	373.00	338.00	330.00	327.00	307.00	284.00	281.00	281.00	281.00	280.00	281.00	281.00	283.00	283.00	283.00	283.00	283.00	284.00
735.00	746.00	757.00	777.00	777.00	747.00	669.00	651.00	615.00	598.00	606.00	654.00	664.00	693.00	741.00	653.00	701.00	745.00	716.00	588.00	578.00	577.00	577.00	577.00	575.00	575.00	573.00	573.00	572.00	571.00	570.00	570.00	570.00	568.00	567.00	567.00	574.00	572.00	573.00	574.00	572.00	570.00	582.00	601.00	619.00	638.00	725.00	736.00	797.00	837.00	768.00	661.00	673.00	667.00	665.00	763.00	737.00	616.00	599.00	602.00	669.00	698.00	746.00	772.00	759.00	715.00	771.00	753.00	731.00	666.00	688.00	722.00	764.00	795.00	830.00	783.00	733.00	724.00	843.00	824.00	811.00	749.00	797.00	849.00	909.00	932.00	915.00	826.00	799.00	759.00	768.00	709.00	713.00	689.00	642.00	636.00	637.00	616.00	610.00	719.00	790.00	751.00	670.00	631.00	664.00	760.00	822.00	843.00	835.00	761.00	727.00	644.00	590.00	574.00	589.00	659.00	636.00	654.00	638.00	667.00	628.00	578.00	540.00	526.00	524.00	532.00	551.00	547.00	552.00	557.00	569.00	646.00	661.00	668.00	687.00	739.00	707.00	729.00	763.00	773.00	722.00	677.00	651.00	599.00	585.00	585.00	558.00	538.00	534.00	526.00	523.00	584.00	588.00	597.00	644.00	582.00	585.00	637.00	655.00	634.00	629.00	531.00	471.00	547.00	626.00	643.00	676.00	628.00	665.00	660.00	613.00	580.00	483.00	472.00	467.00	448.00	501.00	546.00	543.00	511.00	500.00	423.00	400.00	461.00	476.00	471.00	494.00	496.00	466.00	440.00	416.00	419.00	411.00	412.00	442.00	483.00	463.00	421.00	401.00	410.00	412.00	388.00	391.00	400.00	363.00	360.00	364.00	366.00	372.00	391.00	414.00	419.00	381.00	391.00	376.00	411.00	411.00	407.00	394.00	413.00	387.00	402.00	358.00	331.00	328.00	310.00	303.00	304.00	321.00	330.00	330.00	338.00	319.00	312.00	347.00	380.00	391.00	401.00	412.00	370.00	364.00	346.00	307.00	286.00	280.00	280.00	280.00	280.00	280.00	281.00	282.00	282.00	282.00	282.00	283.00	284.00
735.00	746.00	757.00	777.00	777.00	747.00	669.00	651.00	615.00	598.00	606.00	654.00	664.00	693.00	741.00	653.00	701.00	745.00	716.00	588.00	578.00	577.00	577.00	577.00	575.00	575.00	573.00	573.00	572.00	571.00	570.00	570.00	570.00	568.00	567.00	567.00	574.00	572.00	573.00	574.00	572.00	570.00	582.00	601.00	619.00	638.00	725.00	736.00	797.00	837.00	768.00	661.00	673.00	667.00	665.00	763.00	737.00	616.00	599.00	602.00	669.00	698.00	746.00	772.00	759.00	715.00	771.00	753.00	731.00	666.00	688.00	722.00	764.00	795.00	830.00	783.00	733.00	724.00	843.00	824.00	811.00	749.00	797.00	849.00	909.00	932.00	915.00	826.00	799.00	759.00	768.00	709.00	713.00	689.00	642.00	636.00	637.00	616.00	610.00	719.00	790.00	751.00	670.00	631.00	664.00	760.00	822.00	843.00	835.00	761.00	727.00	644.00	590.00	574.00	589.00	659.00	636.00	654.00	638.00	667.00	628.00	578.00	540.00	526.00	524.00	532.00	551.00	547.00	552.00	557.00	569.00	646.00	661.00	668.00	687.00	739.00	707.00	729.00	763.00	773.00	722.00	677.00	651.00	599.00	585.00	585.00	558.00	538.00	534.00	526.00	523.00	584.00	588.00	597.00	644.00	582.00	585.00	637.00	655.00	634.00	629.00	531.00	471.00	547.00	626.00	643.00	676.00	628.00	665.00	660.00	613.00	580.00	483.00	472.00	467.00	448.00	501.00	546.00	543.00	511.00	500.00	423.00	400.00	461.00	476.00	471.00	494.00	496.00	466.00	440.00	416.00	419.00	411.00	412.00	442.00	483.00	463.00	421.00	401.00	410.00	412.00	388.00	391.00	400.00	363.00	360.00	364.00	366.00	372.00	391.00	414.00	419.00	381.00	391.00	376.00	411.00	411.00	407.00	394.00	413.00	387.00	402.00	358.00	331.00	328.00	310.00	303.00	304.00	321.00	330.00	330.00	338.00	319.00	312.00	347.00	380.00	391.00	401.00	412.00	370.00	364.00	346.00	307.00	286.00	280.00	280.00	280.00	280.00	280.00	281.00	282.00	282.00	282.00	282.00	283.00	284.00
699.00	735.00	776.00	742.00	721.00	700.00	726.00	726.00	670.00	601.00	602.00	631.00	678.00	718.00	697.00	622.00	647.00	643.00	606.00	580.00	579.00	578.00	577.00	577.00	576.00	575.00	574.00	573.00	572.00	571.00	571.00	572.00	571.00	572.00	576.00	581.00	594.00	613.00	619.00	624.00	598.00	574.00	598.00	672.00	716.00	703.00	795.00	840.00	812.00	798.00	754.00	688.00	717.00	734.00	720.00	736.00	707.00	621.00	611.00	605.00	649.00	707.00	717.00	730.00	817.00	804.00	833.00	806.00	758.00	705.00	706.00	687.00	708.00	800.00	827.00	783.00	790.00	764.00	900.00	917.00	883.00	791.00	848.00	876.00	922.00	904.00	824.00	754.00	762.00	757.00	713.00	696.00	686.00	666.00	685.00	706.00	673.00	636.00	617.00	603.00	704.00	696.00	653.00	618.00	675.00	771.00	783.00	761.00	816.00	691.00	672.00	653.00	645.00	618.00	556.00	564.00	580.00	651.00	603.00	631.00	610.00	574.00	546.00	522.00	520.00	524.00	535.00	559.00	590.00	643.00	671.00	707.00	731.00	738.00	747.00	749.00	665.00	693.00	719.00	766.00	707.00	669.00	645.00	631.00	660.00	683.00	640.00	605.00	567.00	515.00	516.00	567.00	595.00	568.00	650.00	612.00	547.00	607.00	649.00	583.00	544.00	499.00	464.00	503.00	537.00	580.00	608.00	578.00	605.00	589.00	558.00	549.00	545.00	536.00	504.00	470.00	434.00	470.00	504.00	507.00	467.00	416.00	394.00	431.00	455.00	434.00	446.00	468.00	467.00	458.00	464.00	453.00	435.00	448.00	469.00	469.00	467.00	451.00	439.00	464.00	432.00	407.00	428.00	419.00	367.00	368.00	374.00	393.00	377.00	384.00	416.00	420.00	406.00	393.00	393.00	423.00	396.00	356.00	371.00	385.00	359.00	382.00	357.00	325.00	307.00	305.00	304.00	305.00	304.00	302.00	300.00	309.00	299.00	298.00	303.00	348.00	335.00	347.00	380.00	412.00	392.00	361.00	299.00	287.00	280.00	280.00	280.00	279.00	279.00	281.00	281.00	282.00	282.00	281.00	282.00	283.00
698.00	695.00	737.00	727.00	662.00	658.00	667.00	704.00	678.00	615.00	590.00	600.00	614.00	620.00	628.00	589.00	583.00	581.00	581.00	580.00	579.00	579.00	578.00	578.00	577.00	579.00	577.00	577.00	579.00	578.00	578.00	579.00	585.00	602.00	610.00	623.00	627.00	695.00	704.00	675.00	627.00	588.00	580.00	618.00	630.00	637.00	719.00	764.00	717.00	735.00	774.00	731.00	756.00	782.00	771.00	693.00	659.00	667.00	647.00	620.00	640.00	710.00	682.00	678.00	769.00	775.00	814.00	847.00	790.00	736.00	775.00	734.00	706.00	799.00	835.00	858.00	897.00	907.00	931.00	975.00	894.00	809.00	928.00	994.00	1013.00	939.00	826.00	882.00	898.00	767.00	731.00	799.00	756.00	705.00	758.00	842.00	795.00	717.00	651.00	592.00	601.00	626.00	604.00	635.00	717.00	693.00	708.00	712.00	775.00	780.00	747.00	696.00	668.00	613.00	596.00	550.00	544.00	596.00	597.00	615.00	567.00	540.00	524.00	516.00	517.00	550.00	565.00	631.00	656.00	685.00	727.00	697.00	743.00	706.00	695.00	738.00	647.00	703.00	746.00	745.00	784.00	775.00	729.00	680.00	688.00	672.00	660.00	621.00	592.00	521.00	506.00	514.00	595.00	559.00	587.00	590.00	535.00	537.00	593.00	577.00	547.00	494.00	461.00	482.00	529.00	569.00	569.00	543.00	559.00	583.00	592.00	604.00	562.00	528.00	507.00	491.00	442.00	424.00	415.00	412.00	406.00	397.00	394.00	386.00	391.00	402.00	405.00	418.00	441.00	454.00	463.00	476.00	466.00	447.00	421.00	435.00	438.00	452.00	471.00	447.00	447.00	456.00	450.00	399.00	374.00	380.00	391.00	410.00	398.00	405.00	429.00	427.00	439.00	403.00	409.00	382.00	383.00	361.00	342.00	332.00	337.00	332.00	318.00	309.00	309.00	316.00	320.00	320.00	319.00	312.00	302.00	300.00	297.00	295.00	294.00	299.00	313.00	363.00	361.00	389.00	372.00	348.00	311.00	289.00	278.00	279.00	279.00	279.00	280.00	280.00	280.00	280.00	281.00	281.00	281.00	283.00
634.00	695.00	740.00	679.00	631.00	612.00	603.00	599.00	591.00	589.00	587.00	587.00	585.00	585.00	586.00	583.00	583.00	582.00	582.00	580.00	580.00	580.00	580.00	581.00	596.00	612.00	605.00	593.00	606.00	599.00	588.00	589.00	596.00	642.00	676.00	705.00	679.00	694.00	704.00	660.00	630.00	601.00	583.00	583.00	586.00	606.00	676.00	697.00	659.00	709.00	751.00	701.00	720.00	744.00	774.00	719.00	705.00	739.00	704.00	669.00	623.00	633.00	648.00	674.00	719.00	775.00	802.00	796.00	819.00	814.00	806.00	773.00	726.00	770.00	821.00	874.00	929.00	996.00	993.00	1001.00	928.00	859.00	1025.00	1042.00	966.00	874.00	839.00	939.00	846.00	813.00	846.00	896.00	831.00	763.00	811.00	881.00	779.00	725.00	677.00	637.00	575.00	577.00	585.00	637.00	675.00	636.00	661.00	707.00	775.00	799.00	731.00	686.00	664.00	690.00	661.00	575.00	539.00	536.00	582.00	558.00	535.00	517.00	511.00	513.00	549.00	627.00	629.00	676.00	646.00	655.00	647.00	709.00	753.00	705.00	664.00	690.00	633.00	707.00	725.00	682.00	739.00	803.00	725.00	668.00	626.00	587.00	571.00	553.00	543.00	520.00	501.00	498.00	566.00	578.00	528.00	564.00	541.00	506.00	557.00	550.00	522.00	530.00	457.00	470.00	526.00	553.00	579.00	533.00	574.00	599.00	592.00	602.00	592.00	575.00	553.00	515.00	452.00	436.00	431.00	424.00	419.00	409.00	403.00	387.00	382.00	385.00	389.00	398.00	406.00	409.00	431.00	426.00	446.00	413.00	395.00	429.00	425.00	402.00	441.00	399.00	419.00	451.00	454.00	407.00	397.00	408.00	420.00	434.00	401.00	407.00	419.00	402.00	406.00	372.00	382.00	371.00	346.00	370.00	370.00	340.00	314.00	311.00	313.00	318.00	325.00	341.00	344.00	338.00	353.00	341.00	325.00	317.00	310.00	309.00	312.00	291.00	292.00	304.00	318.00	367.00	355.00	343.00	314.00	291.00	278.00	280.00	279.00	279.00	280.00	280.00	280.00	280.00	280.00	280.00	281.00	282.00
619.00	739.00	683.00	608.00	592.00	591.00	590.00	590.00	589.00	588.00	587.00	586.00	586.00	585.00	585.00	583.00	582.00	582.00	582.00	582.00	582.00	582.00	582.00	583.00	617.00	647.00	631.00	612.00	631.00	618.00	600.00	608.00	608.00	673.00	724.00	769.00	724.00	716.00	719.00	677.00	636.00	606.00	592.00	593.00	591.00	590.00	626.00	619.00	654.00	717.00	703.00	673.00	732.00	774.00	792.00	782.00	782.00	795.00	761.00	714.00	646.00	636.00	638.00	683.00	736.00	747.00	727.00	722.00	769.00	891.00	893.00	812.00	794.00	844.00	896.00	912.00	981.00	1059.00	1001.00	960.00	932.00	924.00	1041.00	1043.00	971.00	942.00	949.00	987.00	936.00	975.00	1005.00	997.00	930.00	889.00	879.00	825.00	721.00	676.00	648.00	658.00	635.00	576.00	569.00	583.00	592.00	660.00	722.00	744.00	741.00	794.00	769.00	783.00	765.00	768.00	671.00	624.00	561.00	529.00	541.00	540.00	516.00	507.00	508.00	555.00	640.00	665.00	662.00	637.00	593.00	597.00	626.00	748.00	759.00	706.00	668.00	639.00	627.00	706.00	711.00	652.00	718.00	769.00	740.00	712.00	696.00	652.00	619.00	571.00	584.00	523.00	509.00	492.00	507.00	554.00	543.00	504.00	498.00	493.00	555.00	545.00	514.00	477.00	454.00	459.00	511.00	573.00	556.00	522.00	548.00	557.00	573.00	597.00	537.00	515.00	499.00	483.00	471.00	467.00	455.00	457.00	455.00	432.00	420.00	390.00	382.00	377.00	379.00	387.00	407.00	399.00	395.00	396.00	436.00	410.00	381.00	407.00	402.00	375.00	400.00	390.00	390.00	424.00	410.00	400.00	418.00	419.00	385.00	382.00	376.00	370.00	371.00	372.00	379.00	361.00	352.00	376.00	344.00	324.00	318.00	315.00	313.00	320.00	319.00	327.00	345.00	372.00	402.00	362.00	376.00	401.00	381.00	361.00	321.00	333.00	358.00	305.00	291.00	289.00	292.00	344.00	324.00	321.00	306.00	289.00	278.00	278.00	279.00	279.00	278.00	279.00	280.00	280.00	279.00	280.00	280.00	280.00
605.00	675.00	602.00	593.00	592.00	592.00	591.00	600.00	611.00	600.00	588.00	586.00	586.00	586.00	585.00	587.00	588.00	587.00	591.00	617.00	604.00	584.00	585.00	585.00	631.00	660.00	657.00	633.00	644.00	625.00	625.00	655.00	643.00	679.00	716.00	738.00	754.00	751.00	703.00	669.00	635.00	611.00	619.00	638.00	625.00	633.00	612.00	603.00	608.00	633.00	635.00	716.00	759.00	755.00	722.00	737.00	766.00	788.00	736.00	697.00	698.00	677.00	648.00	648.00	671.00	685.00	698.00	760.00	846.00	927.00	973.00	913.00	912.00	913.00	1027.00	1046.00	1071.00	1119.00	967.00	911.00	881.00	926.00	1062.00	1019.00	1000.00	974.00	918.00	968.00	974.00	1081.00	1089.00	1004.00	952.00	915.00	827.00	761.00	673.00	645.00	621.00	618.00	620.00	598.00	562.00	562.00	577.00	705.00	711.00	664.00	665.00	783.00	705.00	710.00	723.00	711.00	656.00	656.00	606.00	566.00	516.00	512.00	504.00	505.00	507.00	574.00	583.00	593.00	575.00	566.00	582.00	604.00	640.00	745.00	795.00	770.00	726.00	673.00	605.00	692.00	683.00	624.00	702.00	729.00	671.00	648.00	679.00	691.00	662.00	648.00	647.00	556.00	532.00	493.00	484.00	493.00	538.00	507.00	483.00	480.00	544.00	550.00	523.00	476.00	450.00	451.00	477.00	537.00	526.00	511.00	540.00	576.00	601.00	624.00	562.00	584.00	558.00	542.00	550.00	524.00	492.00	513.00	481.00	447.00	421.00	393.00	387.00	375.00	373.00	371.00	375.00	388.00	373.00	377.00	408.00	424.00	372.00	367.00	363.00	358.00	366.00	384.00	363.00	374.00	398.00	381.00	387.00	382.00	359.00	362.00	400.00	378.00	356.00	346.00	340.00	354.00	326.00	330.00	321.00	316.00	316.00	316.00	321.00	363.00	336.00	334.00	363.00	381.00	450.00	391.00	391.00	444.00	382.00	346.00	339.00	358.00	386.00	327.00	302.00	292.00	291.00	286.00	285.00	285.00	286.00	280.00	278.00	278.00	278.00	278.00	278.00	278.00	278.00	279.00	279.00	279.00	279.00	279.00
596.00	595.00	594.00	594.00	593.00	592.00	595.00	643.00	672.00	646.00	617.00	602.00	599.00	597.00	597.00	620.00	653.00	653.00	657.00	665.00	641.00	596.00	586.00	588.00	602.00	637.00	686.00	661.00	657.00	634.00	642.00	681.00	705.00	653.00	686.00	720.00	811.00	764.00	690.00	651.00	628.00	613.00	643.00	662.00	683.00	726.00	762.00	668.00	616.00	609.00	614.00	654.00	674.00	663.00	678.00	753.00	765.00	795.00	757.00	736.00	726.00	705.00	691.00	664.00	689.00	736.00	742.00	745.00	809.00	959.00	919.00	848.00	860.00	951.00	1021.00	1087.00	1083.00	1040.00	918.00	857.00	873.00	957.00	992.00	926.00	873.00	873.00	830.00	853.00	848.00	987.00	964.00	872.00	821.00	785.00	748.00	706.00	644.00	622.00	606.00	576.00	571.00	564.00	557.00	551.00	553.00	671.00	627.00	612.00	682.00	737.00	652.00	621.00	686.00	672.00	596.00	620.00	608.00	586.00	522.00	508.00	501.00	503.00	512.00	525.00	530.00	541.00	561.00	598.00	639.00	638.00	643.00	762.00	755.00	778.00	746.00	692.00	589.00	639.00	625.00	611.00	742.00	750.00	679.00	621.00	615.00	664.00	719.00	703.00	648.00	589.00	574.00	535.00	479.00	477.00	563.00	536.00	496.00	475.00	495.00	549.00	546.00	524.00	446.00	448.00	477.00	542.00	490.00	528.00	577.00	623.00	656.00	675.00	617.00	641.00	618.00	593.00	584.00	573.00	548.00	542.00	516.00	444.00	423.00	415.00	414.00	377.00	372.00	370.00	368.00	366.00	363.00	361.00	368.00	380.00	362.00	373.00	390.00	369.00	352.00	348.00	347.00	352.00	353.00	371.00	352.00	352.00	344.00	360.00	380.00	383.00	378.00	376.00	339.00	327.00	320.00	318.00	318.00	321.00	328.00	338.00	343.00	382.00	337.00	344.00	371.00	410.00	458.00	434.00	451.00	447.00	393.00	391.00	401.00	380.00	414.00	349.00	312.00	312.00	324.00	320.00	299.00	296.00	288.00	280.00	278.00	278.00	277.00	277.00	277.00	278.00	279.00	279.00	278.00	277.00	278.00	279.00
596.00	594.00	596.00	600.00	599.00	595.00	635.00	664.00	683.00	715.00	673.00	646.00	634.00	628.00	650.00	633.00	670.00	725.00	737.00	673.00	633.00	600.00	590.00	590.00	593.00	598.00	667.00	688.00	676.00	663.00	673.00	693.00	745.00	683.00	749.00	792.00	857.00	708.00	669.00	648.00	641.00	629.00	675.00	711.00	749.00	796.00	775.00	713.00	662.00	616.00	615.00	625.00	630.00	635.00	655.00	712.00	705.00	775.00	782.00	804.00	775.00	743.00	707.00	700.00	671.00	688.00	708.00	730.00	807.00	943.00	871.00	801.00	799.00	907.00	1003.00	1025.00	969.00	943.00	825.00	833.00	904.00	893.00	890.00	875.00	816.00	778.00	778.00	783.00	800.00	889.00	838.00	769.00	727.00	704.00	685.00	665.00	617.00	601.00	610.00	642.00	647.00	627.00	600.00	547.00	544.00	611.00	583.00	586.00	626.00	653.00	603.00	582.00	671.00	736.00	609.00	572.00	556.00	554.00	519.00	505.00	498.00	502.00	542.00	596.00	564.00	555.00	615.00	608.00	620.00	664.00	691.00	739.00	690.00	687.00	730.00	694.00	592.00	578.00	591.00	648.00	738.00	718.00	676.00	627.00	580.00	650.00	650.00	684.00	687.00	576.00	536.00	528.00	479.00	473.00	514.00	551.00	554.00	523.00	464.00	506.00	504.00	486.00	443.00	445.00	481.00	485.00	466.00	531.00	569.00	609.00	651.00	656.00	630.00	605.00	580.00	563.00	524.00	517.00	541.00	547.00	518.00	457.00	458.00	431.00	404.00	377.00	383.00	405.00	400.00	388.00	366.00	363.00	359.00	358.00	352.00	352.00	360.00	356.00	348.00	345.00	344.00	343.00	341.00	338.00	336.00	335.00	335.00	342.00	351.00	351.00	365.00	384.00	358.00	326.00	321.00	321.00	326.00	344.00	358.00	382.00	388.00	371.00	341.00	349.00	364.00	425.00	472.00	478.00	466.00	469.00	461.00	455.00	439.00	407.00	418.00	345.00	327.00	347.00	390.00	354.00	340.00	323.00	303.00	298.00	277.00	278.00	276.00	276.00	277.00	278.00	278.00	278.00	278.00	278.00	277.00	278.00
596.00	594.00	596.00	600.00	599.00	595.00	635.00	664.00	683.00	715.00	673.00	646.00	634.00	628.00	650.00	633.00	670.00	725.00	737.00	673.00	633.00	600.00	590.00	590.00	593.00	598.00	667.00	688.00	676.00	663.00	673.00	693.00	745.00	683.00	749.00	792.00	857.00	708.00	669.00	648.00	641.00	629.00	675.00	711.00	749.00	796.00	775.00	713.00	662.00	616.00	615.00	625.00	630.00	635.00	655.00	712.00	705.00	775.00	782.00	804.00	775.00	743.00	707.00	700.00	671.00	688.00	708.00	730.00	807.00	943.00	871.00	801.00	799.00	907.00	1003.00	1025.00	969.00	943.00	825.00	833.00	904.00	893.00	890.00	875.00	816.00	778.00	778.00	783.00	800.00	889.00	838.00	769.00	727.00	704.00	685.00	665.00	617.00	601.00	610.00	642.00	647.00	627.00	600.00	547.00	544.00	611.00	583.00	586.00	626.00	653.00	603.00	582.00	671.00	736.00	609.00	572.00	556.00	554.00	519.00	505.00	498.00	502.00	542.00	596.00	564.00	555.00	615.00	608.00	620.00	664.00	691.00	739.00	690.00	687.00	730.00	694.00	592.00	578.00	591.00	648.00	738.00	718.00	676.00	627.00	580.00	650.00	650.00	684.00	687.00	576.00	536.00	528.00	479.00	473.00	514.00	551.00	554.00	523.00	464.00	506.00	504.00	486.00	443.00	445.00	481.00	485.00	466.00	531.00	569.00	609.00	651.00	656.00	630.00	605.00	580.00	563.00	524.00	517.00	541.00	547.00	518.00	457.00	458.00	431.00	404.00	377.00	383.00	405.00	400.00	388.00	366.00	363.00	359.00	358.00	352.00	352.00	360.00	356.00	348.00	345.00	344.00	343.00	341.00	338.00	336.00	335.00	335.00	342.00	351.00	351.00	365.00	384.00	358.00	326.00	321.00	321.00	326.00	344.00	358.00	382.00	388.00	371.00	341.00	349.00	364.00	425.00	472.00	478.00	466.00	469.00	461.00	455.00	439.00	407.00	418.00	345.00	327.00	347.00	390.00	354.00	340.00	323.00	303.00	298.00	277.00	278.00	276.00	276.00	277.00	278.00	278.00	278.00	278.00	278.00	277.00	278.00
597.00	618.00	654.00	662.00	651.00	609.00	662.00	708.00	726.00	740.00	750.00	710.00	694.00	692.00	724.00	673.00	683.00	727.00	725.00	636.00	617.00	599.00	593.00	593.00	599.00	597.00	611.00	634.00	699.00	704.00	730.00	743.00	774.00	731.00	750.00	802.00	773.00	724.00	721.00	692.00	700.00	668.00	714.00	790.00	844.00	878.00	755.00	708.00	658.00	623.00	620.00	646.00	660.00	682.00	666.00	654.00	669.00	691.00	708.00	737.00	794.00	785.00	767.00	758.00	683.00	696.00	731.00	768.00	829.00	868.00	819.00	771.00	775.00	883.00	955.00	966.00	903.00	844.00	802.00	846.00	823.00	821.00	812.00	839.00	834.00	795.00	745.00	734.00	783.00	810.00	754.00	708.00	697.00	676.00	648.00	632.00	622.00	687.00	684.00	608.00	616.00	578.00	577.00	545.00	538.00	542.00	547.00	550.00	560.00	567.00	573.00	554.00	639.00	645.00	629.00	601.00	560.00	532.00	506.00	498.00	495.00	513.00	596.00	627.00	617.00	572.00	596.00	681.00	650.00	647.00	700.00	751.00	709.00	670.00	643.00	629.00	592.00	565.00	582.00	668.00	655.00	638.00	669.00	621.00	571.00	626.00	614.00	672.00	638.00	599.00	565.00	537.00	490.00	471.00	466.00	488.00	540.00	534.00	465.00	458.00	507.00	511.00	439.00	443.00	452.00	469.00	493.00	517.00	549.00	599.00	603.00	588.00	649.00	630.00	617.00	621.00	539.00	526.00	500.00	479.00	478.00	510.00	484.00	406.00	391.00	392.00	411.00	453.00	446.00	414.00	381.00	382.00	370.00	361.00	360.00	357.00	354.00	354.00	352.00	368.00	392.00	365.00	348.00	350.00	340.00	335.00	333.00	332.00	330.00	330.00	332.00	343.00	333.00	324.00	323.00	328.00	339.00	370.00	399.00	431.00	417.00	360.00	349.00	362.00	377.00	452.00	428.00	432.00	431.00	436.00	432.00	406.00	428.00	421.00	399.00	375.00	377.00	407.00	407.00	381.00	350.00	350.00	342.00	336.00	275.00	277.00	276.00	276.00	277.00	277.00	277.00	277.00	278.00	277.00	277.00	278.00
603.00	694.00	716.00	746.00	732.00	652.00	675.00	673.00	657.00	665.00	769.00	774.00	775.00	813.00	794.00	750.00	730.00	706.00	703.00	707.00	663.00	619.00	599.00	599.00	695.00	684.00	632.00	614.00	615.00	635.00	668.00	710.00	685.00	708.00	713.00	680.00	713.00	780.00	816.00	874.00	825.00	739.00	690.00	732.00	799.00	809.00	708.00	665.00	659.00	641.00	635.00	748.00	741.00	710.00	732.00	741.00	698.00	715.00	764.00	797.00	741.00	775.00	801.00	767.00	731.00	798.00	808.00	824.00	773.00	828.00	742.00	752.00	806.00	791.00	855.00	902.00	896.00	889.00	755.00	749.00	727.00	716.00	706.00	711.00	760.00	769.00	802.00	789.00	750.00	684.00	659.00	691.00	702.00	715.00	709.00	735.00	685.00	673.00	635.00	599.00	573.00	580.00	633.00	682.00	662.00	569.00	613.00	633.00	576.00	537.00	512.00	505.00	502.00	503.00	543.00	538.00	531.00	503.00	489.00	488.00	555.00	598.00	610.00	724.00	724.00	699.00	669.00	670.00	737.00	733.00	719.00	759.00	701.00	636.00	694.00	712.00	617.00	561.00	544.00	612.00	588.00	576.00	609.00	626.00	581.00	529.00	552.00	576.00	614.00	548.00	525.00	507.00	548.00	515.00	457.00	455.00	453.00	488.00	528.00	489.00	454.00	441.00	432.00	437.00	468.00	497.00	505.00	499.00	510.00	522.00	547.00	581.00	650.00	659.00	649.00	654.00	621.00	592.00	555.00	532.00	522.00	440.00	421.00	398.00	399.00	426.00	479.00	492.00	458.00	418.00	401.00	392.00	382.00	368.00	415.00	398.00	396.00	410.00	382.00	429.00	414.00	416.00	406.00	434.00	391.00	365.00	367.00	357.00	336.00	333.00	343.00	341.00	340.00	340.00	340.00	333.00	344.00	407.00	426.00	445.00	445.00	380.00	387.00	391.00	430.00	435.00	447.00	449.00	409.00	381.00	399.00	392.00	368.00	354.00	348.00	354.00	354.00	353.00	343.00	333.00	328.00	323.00	323.00	325.00	295.00	276.00	275.00	275.00	276.00	276.00	276.00	276.00	276.00	276.00	276.00	277.00
603.00	694.00	716.00	746.00	732.00	652.00	675.00	673.00	657.00	665.00	769.00	774.00	775.00	813.00	794.00	750.00	730.00	706.00	703.00	707.00	663.00	619.00	599.00	599.00	695.00	684.00	632.00	614.00	615.00	635.00	668.00	710.00	685.00	708.00	713.00	680.00	713.00	780.00	816.00	874.00	825.00	739.00	690.00	732.00	799.00	809.00	708.00	665.00	659.00	641.00	635.00	748.00	741.00	710.00	732.00	741.00	698.00	715.00	764.00	797.00	741.00	775.00	801.00	767.00	731.00	798.00	808.00	824.00	773.00	828.00	742.00	752.00	806.00	791.00	855.00	902.00	896.00	889.00	755.00	749.00	727.00	716.00	706.00	711.00	760.00	769.00	802.00	789.00	750.00	684.00	659.00	691.00	702.00	715.00	709.00	735.00	685.00	673.00	635.00	599.00	573.00	580.00	633.00	682.00	662.00	569.00	613.00	633.00	576.00	537.00	512.00	505.00	502.00	503.00	543.00	538.00	531.00	503.00	489.00	488.00	555.00	598.00	610.00	724.00	724.00	699.00	669.00	670.00	737.00	733.00	719.00	759.00	701.00	636.00	694.00	712.00	617.00	561.00	544.00	612.00	588.00	576.00	609.00	626.00	581.00	529.00	552.00	576.00	614.00	548.00	525.00	507.00	548.00	515.00	457.00	455.00	453.00	488.00	528.00	489.00	454.00	441.00	432.00	437.00	468.00	497.00	505.00	499.00	510.00	522.00	547.00	581.00	650.00	659.00	649.00	654.00	621.00	592.00	555.00	532.00	522.00	440.00	421.00	398.00	399.00	426.00	479.00	492.00	458.00	418.00	401.00	392.00	382.00	368.00	415.00	398.00	396.00	410.00	382.00	429.00	414.00	416.00	406.00	434.00	391.00	365.00	367.00	357.00	336.00	333.00	343.00	341.00	340.00	340.00	340.00	333.00	344.00	407.00	426.00	445.00	445.00	380.00	387.00	391.00	430.00	435.00	447.00	449.00	409.00	381.00	399.00	392.00	368.00	354.00	348.00	354.00	354.00	353.00	343.00	333.00	328.00	323.00	323.00	325.00	295.00	276.00	275.00	275.00	276.00	276.00	276.00	276.00	276.00	276.00	276.00	277.00
619.00	708.00	740.00	755.00	748.00	670.00	739.00	775.00	723.00	677.00	779.00	760.00	729.00	728.00	728.00	718.00	704.00	705.00	686.00	666.00	633.00	608.00	601.00	608.00	725.00	726.00	680.00	645.00	618.00	619.00	621.00	625.00	628.00	634.00	639.00	643.00	652.00	679.00	712.00	768.00	797.00	756.00	732.00	785.00	822.00	832.00	692.00	721.00	715.00	681.00	644.00	725.00	768.00	758.00	758.00	766.00	720.00	723.00	720.00	743.00	776.00	802.00	806.00	769.00	783.00	857.00	820.00	775.00	743.00	768.00	712.00	731.00	765.00	782.00	845.00	873.00	819.00	844.00	840.00	853.00	825.00	819.00	710.00	693.00	676.00	688.00	757.00	835.00	860.00	759.00	693.00	636.00	656.00	724.00	704.00	719.00	656.00	634.00	611.00	657.00	586.00	610.00	612.00	657.00	705.00	644.00	678.00	671.00	600.00	606.00	548.00	549.00	507.00	496.00	493.00	498.00	499.00	488.00	485.00	526.00	676.00	700.00	729.00	749.00	697.00	709.00	744.00	718.00	733.00	709.00	676.00	639.00	622.00	594.00	604.00	603.00	616.00	559.00	536.00	572.00	625.00	549.00	571.00	600.00	615.00	532.00	515.00	541.00	581.00	593.00	554.00	531.00	479.00	483.00	456.00	451.00	449.00	451.00	513.00	500.00	474.00	466.00	429.00	450.00	504.00	502.00	482.00	503.00	528.00	561.00	606.00	642.00	669.00	649.00	604.00	599.00	566.00	540.00	525.00	512.00	478.00	449.00	419.00	409.00	434.00	463.00	508.00	484.00	462.00	453.00	452.00	426.00	393.00	373.00	444.00	472.00	428.00	453.00	420.00	436.00	430.00	430.00	404.00	385.00	374.00	363.00	357.00	350.00	340.00	336.00	364.00	354.00	350.00	361.00	367.00	336.00	342.00	372.00	379.00	394.00	415.00	424.00	440.00	456.00	469.00	429.00	401.00	399.00	422.00	404.00	363.00	370.00	395.00	388.00	375.00	325.00	330.00	385.00	372.00	377.00	365.00	342.00	334.00	317.00	310.00	284.00	275.00	275.00	276.00	275.00	275.00	275.00	275.00	275.00	275.00	277.00
683.00	659.00	670.00	699.00	752.00	701.00	714.00	764.00	763.00	720.00	796.00	794.00	763.00	734.00	709.00	666.00	667.00	653.00	643.00	625.00	609.00	605.00	605.00	626.00	785.00	744.00	697.00	663.00	630.00	635.00	630.00	641.00	644.00	650.00	676.00	723.00	738.00	667.00	661.00	683.00	723.00	768.00	790.00	822.00	867.00	830.00	730.00	733.00	772.00	735.00	678.00	669.00	748.00	758.00	771.00	783.00	740.00	771.00	793.00	784.00	820.00	834.00	815.00	802.00	858.00	851.00	828.00	807.00	746.00	698.00	698.00	807.00	888.00	851.00	861.00	892.00	845.00	776.00	887.00	903.00	905.00	849.00	803.00	781.00	716.00	671.00	659.00	727.00	821.00	767.00	726.00	648.00	625.00	631.00	646.00	669.00	704.00	688.00	668.00	642.00	634.00	640.00	659.00	648.00	718.00	746.00	744.00	711.00	736.00	639.00	600.00	621.00	585.00	538.00	490.00	487.00	485.00	482.00	499.00	615.00	761.00	738.00	729.00	667.00	651.00	692.00	745.00	810.00	788.00	759.00	710.00	688.00	681.00	631.00	601.00	574.00	545.00	535.00	527.00	545.00	617.00	556.00	531.00	543.00	562.00	546.00	505.00	527.00	578.00	607.00	575.00	537.00	483.00	481.00	469.00	453.00	445.00	443.00	459.00	476.00	498.00	521.00	429.00	453.00	507.00	465.00	477.00	534.00	571.00	609.00	641.00	629.00	646.00	599.00	586.00	545.00	606.00	557.00	528.00	507.00	489.00	441.00	418.00	453.00	494.00	559.00	526.00	519.00	500.00	507.00	435.00	419.00	391.00	377.00	467.00	513.00	509.00	498.00	466.00	457.00	434.00	402.00	404.00	403.00	400.00	385.00	370.00	361.00	343.00	340.00	372.00	370.00	361.00	388.00	396.00	345.00	344.00	377.00	394.00	427.00	476.00	506.00	507.00	477.00	447.00	462.00	446.00	406.00	369.00	387.00	372.00	353.00	352.00	402.00	390.00	343.00	320.00	321.00	329.00	315.00	302.00	294.00	288.00	286.00	282.00	277.00	276.00	275.00	275.00	275.00	275.00	275.00	275.00	275.00	275.00	276.00
705.00	720.00	714.00	708.00	712.00	726.00	769.00	780.00	812.00	802.00	818.00	792.00	782.00	782.00	749.00	656.00	639.00	631.00	624.00	633.00	645.00	614.00	607.00	615.00	788.00	764.00	695.00	666.00	660.00	651.00	656.00	698.00	691.00	687.00	700.00	747.00	853.00	737.00	676.00	666.00	681.00	716.00	835.00	885.00	931.00	889.00	798.00	757.00	767.00	721.00	686.00	665.00	668.00	685.00	735.00	792.00	768.00	773.00	841.00	857.00	810.00	791.00	811.00	861.00	874.00	907.00	904.00	877.00	829.00	695.00	696.00	782.00	795.00	795.00	837.00	868.00	820.00	757.00	826.00	848.00	901.00	837.00	742.00	716.00	700.00	696.00	702.00	644.00	676.00	696.00	702.00	729.00	663.00	613.00	608.00	648.00	675.00	658.00	696.00	643.00	697.00	717.00	738.00	707.00	736.00	733.00	683.00	679.00	681.00	681.00	677.00	615.00	580.00	571.00	523.00	498.00	483.00	480.00	519.00	613.00	697.00	648.00	627.00	627.00	675.00	734.00	754.00	733.00	729.00	777.00	755.00	779.00	738.00	701.00	651.00	601.00	557.00	540.00	521.00	522.00	619.00	575.00	549.00	527.00	515.00	509.00	495.00	523.00	564.00	623.00	631.00	573.00	556.00	523.00	538.00	510.00	454.00	441.00	436.00	436.00	444.00	494.00	432.00	439.00	452.00	474.00	512.00	584.00	608.00	639.00	631.00	584.00	637.00	586.00	540.00	510.00	603.00	567.00	529.00	509.00	484.00	436.00	423.00	469.00	494.00	558.00	531.00	488.00	471.00	475.00	430.00	421.00	400.00	383.00	482.00	531.00	531.00	502.00	508.00	481.00	432.00	427.00	434.00	449.00	461.00	429.00	395.00	366.00	346.00	345.00	354.00	375.00	355.00	377.00	407.00	355.00	349.00	390.00	428.00	483.00	506.00	509.00	525.00	486.00	461.00	401.00	409.00	403.00	370.00	349.00	404.00	364.00	343.00	341.00	351.00	359.00	331.00	307.00	301.00	296.00	296.00	304.00	304.00	298.00	316.00	298.00	276.00	276.00	275.00	274.00	274.00	274.00	273.00	274.00	275.00	276.00
705.00	720.00	714.00	708.00	712.00	726.00	769.00	780.00	812.00	802.00	818.00	792.00	782.00	782.00	749.00	656.00	639.00	631.00	624.00	633.00	645.00	614.00	607.00	615.00	788.00	764.00	695.00	666.00	660.00	651.00	656.00	698.00	691.00	687.00	700.00	747.00	853.00	737.00	676.00	666.00	681.00	716.00	835.00	885.00	931.00	889.00	798.00	757.00	767.00	721.00	686.00	665.00	668.00	685.00	735.00	792.00	768.00	773.00	841.00	857.00	810.00	791.00	811.00	861.00	874.00	907.00	904.00	877.00	829.00	695.00	696.00	782.00	795.00	795.00	837.00	868.00	820.00	757.00	826.00	848.00	901.00	837.00	742.00	716.00	700.00	696.00	702.00	644.00	676.00	696.00	702.00	729.00	663.00	613.00	608.00	648.00	675.00	658.00	696.00	643.00	697.00	717.00	738.00	707.00	736.00	733.00	683.00	679.00	681.00	681.00	677.00	615.00	580.00	571.00	523.00	498.00	483.00	480.00	519.00	613.00	697.00	648.00	627.00	627.00	675.00	734.00	754.00	733.00	729.00	777.00	755.00	779.00	738.00	701.00	651.00	601.00	557.00	540.00	521.00	522.00	619.00	575.00	549.00	527.00	515.00	509.00	495.00	523.00	564.00	623.00	631.00	573.00	556.00	523.00	538.00	510.00	454.00	441.00	436.00	436.00	444.00	494.00	432.00	439.00	452.00	474.00	512.00	584.00	608.00	639.00	631.00	584.00	637.00	586.00	540.00	510.00	603.00	567.00	529.00	509.00	484.00	436.00	423.00	469.00	494.00	558.00	531.00	488.00	471.00	475.00	430.00	421.00	400.00	383.00	482.00	531.00	531.00	502.00	508.00	481.00	432.00	427.00	434.00	449.00	461.00	429.00	395.00	366.00	346.00	345.00	354.00	375.00	355.00	377.00	407.00	355.00	349.00	390.00	428.00	483.00	506.00	509.00	525.00	486.00	461.00	401.00	409.00	403.00	370.00	349.00	404.00	364.00	343.00	341.00	351.00	359.00	331.00	307.00	301.00	296.00	296.00	304.00	304.00	298.00	316.00	298.00	276.00	276.00	275.00	274.00	274.00	274.00	273.00	274.00	275.00	276.00
670.00	774.00	793.00	780.00	758.00	765.00	792.00	834.00	819.00	798.00	825.00	784.00	754.00	730.00	714.00	653.00	634.00	633.00	674.00	696.00	670.00	617.00	611.00	613.00	718.00	773.00	701.00	679.00	694.00	675.00	666.00	718.00	726.00	745.00	766.00	742.00	883.00	779.00	721.00	675.00	673.00	703.00	813.00	882.00	967.00	947.00	821.00	779.00	743.00	716.00	746.00	695.00	674.00	670.00	683.00	738.00	759.00	794.00	824.00	810.00	805.00	761.00	798.00	845.00	874.00	909.00	836.00	807.00	867.00	690.00	675.00	726.00	771.00	811.00	782.00	838.00	816.00	750.00	766.00	843.00	910.00	845.00	743.00	745.00	774.00	783.00	806.00	716.00	667.00	630.00	639.00	737.00	675.00	627.00	601.00	601.00	619.00	657.00	698.00	666.00	777.00	830.00	846.00	812.00	779.00	724.00	730.00	692.00	616.00	619.00	616.00	609.00	617.00	636.00	604.00	529.00	483.00	477.00	531.00	579.00	568.00	562.00	576.00	677.00	720.00	743.00	694.00	626.00	654.00	710.00	686.00	707.00	676.00	649.00	661.00	644.00	594.00	584.00	539.00	513.00	571.00	639.00	598.00	570.00	535.00	508.00	488.00	502.00	531.00	643.00	645.00	593.00	583.00	560.00	524.00	482.00	452.00	447.00	434.00	432.00	429.00	427.00	422.00	444.00	491.00	530.00	572.00	620.00	628.00	619.00	586.00	547.00	602.00	569.00	542.00	496.00	571.00	570.00	537.00	515.00	490.00	443.00	444.00	474.00	485.00	509.00	494.00	475.00	447.00	459.00	479.00	443.00	402.00	400.00	500.00	506.00	490.00	519.00	538.00	457.00	459.00	481.00	473.00	453.00	440.00	421.00	373.00	355.00	357.00	355.00	352.00	368.00	370.00	378.00	380.00	351.00	354.00	407.00	437.00	484.00	491.00	478.00	498.00	461.00	447.00	395.00	382.00	373.00	365.00	356.00	344.00	351.00	350.00	337.00	324.00	318.00	306.00	302.00	302.00	311.00	358.00	378.00	339.00	321.00	354.00	324.00	275.00	274.00	274.00	274.00	274.00	273.00	274.00	273.00	274.00	275.00
670.00	774.00	793.00	780.00	758.00	765.00	792.00	834.00	819.00	798.00	825.00	784.00	754.00	730.00	714.00	653.00	634.00	633.00	674.00	696.00	670.00	617.00	611.00	613.00	718.00	773.00	701.00	679.00	694.00	675.00	666.00	718.00	726.00	745.00	766.00	742.00	883.00	779.00	721.00	675.00	673.00	703.00	813.00	882.00	967.00	947.00	821.00	779.00	743.00	716.00	746.00	695.00	674.00	670.00	683.00	738.00	759.00	794.00	824.00	810.00	805.00	761.00	798.00	845.00	874.00	909.00	836.00	807.00	867.00	690.00	675.00	726.00	771.00	811.00	782.00	838.00	816.00	750.00	766.00	843.00	910.00	845.00	743.00	745.00	774.00	783.00	806.00	716.00	667.00	630.00	639.00	737.00	675.00	627.00	601.00	601.00	619.00	657.00	698.00	666.00	777.00	830.00	846.00	812.00	779.00	724.00	730.00	692.00	616.00	619.00	616.00	609.00	617.00	636.00	604.00	529.00	483.00	477.00	531.00	579.00	568.00	562.00	576.00	677.00	720.00	743.00	694.00	626.00	654.00	710.00	686.00	707.00	676.00	649.00	661.00	644.00	594.00	584.00	539.00	513.00	571.00	639.00	598.00	570.00	535.00	508.00	488.00	502.00	531.00	643.00	645.00	593.00	583.00	560.00	524.00	482.00	452.00	447.00	434.00	432.00	429.00	427.00	422.00	444.00	491.00	530.00	572.00	620.00	628.00	619.00	586.00	547.00	602.00	569.00	542.00	496.00	571.00	570.00	537.00	515.00	490.00	443.00	444.00	474.00	485.00	509.00	494.00	475.00	447.00	459.00	479.00	443.00	402.00	400.00	500.00	506.00	490.00	519.00	538.00	457.00	459.00	481.00	473.00	453.00	440.00	421.00	373.00	355.00	357.00	355.00	352.00	368.00	370.00	378.00	380.00	351.00	354.00	407.00	437.00	484.00	491.00	478.00	498.00	461.00	447.00	395.00	382.00	373.00	365.00	356.00	344.00	351.00	350.00	337.00	324.00	318.00	306.00	302.00	302.00	311.00	358.00	378.00	339.00	321.00	354.00	324.00	275.00	274.00	274.00	274.00	274.00	273.00	274.00	273.00	274.00	275.00
641.00	735.00	763.00	801.00	835.00	864.00	905.00	874.00	855.00	821.00	722.00	754.00	760.00	708.00	671.00	647.00	662.00	713.00	741.00	700.00	693.00	673.00	628.00	618.00	708.00	772.00	761.00	769.00	798.00	811.00	768.00	715.00	753.00	769.00	781.00	836.00	884.00	784.00	724.00	717.00	723.00	687.00	793.00	799.00	781.00	802.00	869.00	815.00	798.00	820.00	790.00	728.00	699.00	704.00	747.00	731.00	743.00	820.00	828.00	831.00	818.00	770.00	731.00	714.00	733.00	723.00	745.00	714.00	731.00	725.00	651.00	671.00	699.00	739.00	761.00	709.00	681.00	698.00	823.00	879.00	888.00	872.00	877.00	883.00	885.00	831.00	769.00	791.00	806.00	704.00	643.00	594.00	592.00	606.00	606.00	584.00	630.00	659.00	685.00	813.00	781.00	790.00	748.00	710.00	773.00	838.00	755.00	659.00	602.00	560.00	550.00	533.00	526.00	511.00	499.00	486.00	475.00	472.00	522.00	594.00	628.00	667.00	647.00	591.00	629.00	686.00	656.00	559.00	614.00	700.00	662.00	575.00	596.00	568.00	622.00	640.00	639.00	625.00	610.00	574.00	499.00	549.00	594.00	648.00	663.00	552.00	496.00	476.00	497.00	567.00	596.00	547.00	518.00	506.00	495.00	505.00	512.00	517.00	546.00	566.00	555.00	516.00	466.00	428.00	422.00	457.00	500.00	518.00	545.00	521.00	498.00	529.00	609.00	561.00	536.00	503.00	464.00	490.00	492.00	455.00	460.00	529.00	533.00	477.00	454.00	445.00	487.00	484.00	456.00	435.00	431.00	426.00	427.00	438.00	453.00	444.00	480.00	523.00	526.00	544.00	508.00	470.00	450.00	470.00	395.00	371.00	383.00	427.00	450.00	405.00	373.00	365.00	430.00	445.00	373.00	362.00	418.00	384.00	399.00	425.00	459.00	450.00	464.00	450.00	442.00	440.00	441.00	417.00	384.00	394.00	395.00	374.00	349.00	328.00	315.00	312.00	332.00	379.00	397.00	430.00	410.00	373.00	355.00	344.00	325.00	311.00	290.00	275.00	273.00	273.00	274.00	274.00	273.00	273.00	272.00	274.00
666.00	670.00	734.00	793.00	821.00	803.00	871.00	862.00	840.00	793.00	788.00	840.00	760.00	685.00	664.00	699.00	696.00	748.00	792.00	756.00	711.00	664.00	647.00	625.00	647.00	710.00	686.00	725.00	792.00	755.00	759.00	741.00	744.00	820.00	837.00	872.00	875.00	765.00	726.00	763.00	797.00	716.00	718.00	751.00	807.00	864.00	858.00	879.00	894.00	879.00	851.00	749.00	715.00	738.00	734.00	790.00	789.00	827.00	835.00	893.00	852.00	815.00	790.00	777.00	716.00	690.00	681.00	673.00	676.00	696.00	658.00	638.00	678.00	756.00	700.00	661.00	682.00	759.00	798.00	817.00	836.00	810.00	834.00	812.00	837.00	846.00	792.00	695.00	723.00	676.00	656.00	623.00	595.00	581.00	577.00	574.00	599.00	610.00	644.00	738.00	730.00	723.00	698.00	662.00	723.00	809.00	716.00	644.00	603.00	613.00	601.00	605.00	581.00	599.00	571.00	527.00	478.00	469.00	471.00	491.00	564.00	583.00	554.00	568.00	634.00	659.00	612.00	539.00	629.00	693.00	665.00	546.00	562.00	544.00	582.00	601.00	682.00	639.00	592.00	556.00	502.00	496.00	554.00	618.00	598.00	566.00	529.00	472.00	479.00	539.00	591.00	598.00	557.00	576.00	555.00	576.00	599.00	601.00	642.00	614.00	550.00	500.00	445.00	429.00	415.00	424.00	446.00	529.00	533.00	485.00	481.00	549.00	608.00	553.00	510.00	483.00	446.00	445.00	440.00	448.00	473.00	560.00	532.00	517.00	476.00	429.00	456.00	475.00	471.00	457.00	412.00	419.00	460.00	471.00	427.00	449.00	470.00	489.00	498.00	518.00	488.00	454.00	425.00	456.00	380.00	398.00	409.00	457.00	494.00	438.00	394.00	373.00	437.00	473.00	386.00	370.00	396.00	438.00	416.00	423.00	453.00	429.00	422.00	417.00	399.00	380.00	393.00	417.00	400.00	415.00	392.00	365.00	345.00	322.00	321.00	325.00	321.00	341.00	363.00	425.00	411.00	398.00	392.00	383.00	341.00	342.00	320.00	277.00	273.00	273.00	274.00	273.00	273.00	273.00	272.00	272.00
